# .PCD v0.7 - Point Cloud Data file format
VERSION 0.7
FIELDS x y z
SIZE 4 4 4
TYPE F F F
COUNT 1 1 1
WIDTH 1979
HEIGHT 1
VIEWPOINT 0 0 0 1 0 0 0
POINTS 1979
DATA ascii
82 4.894681 30.329958
84 4.9040623 30.925358
86 4.838974 30.330793
89 4.840857 30.408047
90 4.666739 30.919062
92 4.5660729 31.136555
94 4.8612733 31.056221
97 4.6221638 30.695435
100 4.5918875 30.790344
101.3 4.7832675 30.988562
105 4.7439661 31.060871
109 4.607707 30.896975
110 4.4892659 30.545223
112 4.4688811 30.679874
114 4.5916605 30.482855
115 4.5616236 30.709066
116 4.6618519 30.881313
117 4.8443332 30.98414
118 4.9861445 31.128225
124 4.9226851 30.976889
129 4.4516144 30.493147
130 4.471931 30.735172
131 4.650197 30.831869
132 4.7812729 30.869301
133 4.9065213 30.927179
134 5.0221767 30.973965
144 4.3295536 30.456776
145 4.2934489 30.878794
146 4.2267489 31.145918
147 4.7602434 30.715006
148 4.6868448 31.160374
159 4.3469739 30.501089
160 4.1644893 30.714111
161 4.5626869 31.018364
162 4.6377172 30.584198
163 4.730876 30.866375
174 4.3268056 30.480076
175 4.3616247 30.702137
176 4.3692369 30.92948
189 4.442811 30.413853
190 4.2506099 30.646526
191 4.3223476 30.945122
192 4.1418376 31.195749
204 4.3650837 30.461765
205 4.2467213 30.673607
206 4.2001557 30.958418
207 4.2235098 31.17433
208 4.2113962 31.291819
219 4.3091021 30.407257
220 4.1756806 30.602419
221 4.2035236 30.95686
222 4.1831088 31.119606
223 4.1578922 31.257284
234 4.3056388 30.429245
235 4.214057 30.63978
236 4.2160935 30.881693
237 4.1860733 31.05134
238 4.1748114 31.215302
239 4.056438 31.303291
248 4.4638424 30.339787
249 4.3243265 30.444849
250 4.2018161 30.603962
251 4.2068357 30.844555
252 4.1898804 31.012369
253 4.216795 31.197899
254 4.1888661 31.278204
255 4.2526226 30.661276
55 5.1064448 31.058552
58 5.1835208 31.11875
61 5.2925739 31.118958
62 5.10746 30.504272
63 5.1146851 30.493467
73 5.1385412 30.830797
74 5.2333598 31.128994
90 5.1478391 31.125359
94 5.0637422 30.911194
95 5.1245708 30.989456
103 5.1551294 31.221231
117 5.1232276 30.860598
118 5.0762596 30.984425
119 5.1429448 31.144127
120 5.2412286 31.261755
127 5.2633262 31.13059
134 5.0612979 31.07375
135 5.122334 30.960365
136 5.2239552 31.228739
137 5.2884488 31.268675
56 7.4180732 30.302612
104 7.847435 30.370602
67 10.097988 30.530073
71 10.059052 31.294323
82 9.9947109 30.598946
83 10.041533 30.640554
93 10.054347 31.299747
96 9.9742861 30.518536
151 10.00889 31.168081
55 10.528817 31.276102
67 10.182519 30.482969
85 10.111576 30.424974
118 10.345117 30.499527
122 10.303962 30.324877
57 -11.610109 32.063683
62 -11.650465 32.065578
81 -11.657861 32.1292
89 -11.598614 32.123032
90 -11.652997 31.997795
95 -11.642122 32.12624
97 -11.58498 32.202095
98 -11.592495 32.119144
99 -11.617708 32.062225
100 -11.557675 32.238705
102 -11.559338 32.191364
103 -11.590048 32.151047
104 -11.484265 32.295887
110 -11.53318 32.175724
112 -11.635205 32.030064
131 -11.595068 32.181427
132 -11.527678 32.286095
169 -11.609301 32.164536
170 -11.570786 32.275002
188 -11.620831 32.15686
189 -11.567592 32.27877
207 -11.609214 32.148857
209 -11.546382 32.276543
247 -11.552365 32.253357
255 -11.60724 32.23819
67 -10.076543 31.905737
59 -8.6404514 32.223522
63 -8.507906 31.856236
75 -8.6326962 32.231571
78 -8.7742634 32.29665
82 -8.4080143 32.158844
84 -8.395957 32.190941
91 -8.2998695 31.378178
102 -8.736413 32.272392
147 -8.6899452 32.277145
148 -8.63799 32.259888
165 -8.4161425 32.149635
166 -8.7802763 32.302601
183 -8.3154984 32.316174
184 -8.519722 32.296654
248 -8.2998247 31.407257
56 -7.6552525 31.856432
58 -7.4985032 31.833487
62 -7.7360392 32.034203
71 -7.64995 31.857553
72 -7.5089788 31.828308
73 -7.491024 31.911341
85 -7.1875672 31.319525
101 -7.8713031 32.181351
103 -7.6357689 31.775158
104 -7.3642182 32.107372
107 -7.498518 31.803898
131 -7.121798 31.669619
156 -7.084095 31.361086
255 -7.8911529 32.269039
58 -6.8876109 31.432854
59 -6.7507901 31.44191
60 -6.601244 31.529737
62 -6.9652228 31.463345
64 -6.8353949 31.609482
71 -6.706717 31.524111
73 -6.861526 31.362762
75 -6.7129092 31.837431
55 -5.916225 31.950335
58 -5.9636288 31.967909
59 -5.7811289 31.713404
60 -5.4127469 31.546768
61 -5.663311 31.896387
62 -5.5426869 31.536015
67 -5.7316818 31.31122
69 -5.2692108 32.30843
74 -5.331522 31.728733
76 -5.3800516 31.688005
78 -5.1548738 32.224445
79 -5.6465225 31.584724
80 -5.3518839 32.285717
82 -5.1884332 31.797079
87 -5.9202652 31.617886
96 -5.9648681 31.678175
98 -5.4138031 31.663273
121 -5.7106042 31.655399
122 -5.476491 31.521622
123 -5.6730199 31.662073
126 -5.0848708 31.683275
133 -5.4674945 31.467793
138 -5.5238838 31.323208
155 -5.5840421 31.549974
178 -5.965055 32.060421
234 -5.9631901 32.038326
57 -4.1617117 31.846119
58 -4.1018429 31.657917
60 -4.1121211 31.518902
61 -4.2470789 31.945343
63 -4.9796848 31.517696
65 -4.0929532 31.503654
69 -4.8890367 31.75547
71 -5.0248818 32.313568
146 -4.979815 31.531349
185 -4.7035689 31.539719
55 -3.768409 31.985556
60 -3.763757 31.982784
65 -3.7456834 31.935257
79 -3.9408081 31.67625
80 -3.554781 31.786537
89 -3.8396902 31.782267
98 -3.8719721 31.760969
106 -3.6190259 31.827431
120 -3.2201049 31.440456
121 -3.279355 31.449713
122 -3.6806951 31.764818
135 -3.140682 31.363245
177 -3.711308 31.70034
186 -3.5572641 31.753489
206 -3.825686 32.28804
55 -2.6771109 31.537016
61 -2.2064631 31.333317
66 -2.1971519 31.488626
86 -2.3107841 31.354008
90 -2.25822 31.630119
119 -2.149786 32.288277
120 -2.6738451 31.492256
121 -2.222415 31.591499
124 -2.195544 32.311527
136 -2.5289574 31.334244
158 -2.1430981 32.24688
197 -2.4394209 31.336763
232 -2.491956 31.335251
55 -1.405602 31.871424
61 -1.595618 31.777975
74 -1.864424 32.223305
80 -1.830379 32.192867
103 -1.104813 31.501871
119 -1.997928 31.315596
120 -1.218671 31.679743
121 -1.479129 31.989264
123 -1.4149265 31.892628
138 -1.1136495 31.653736
139 -1.2845798 32.128883
154 -1.196362 31.842464
155 -1.2193457 31.836752
156 -1.1482744 32.016579
157 -1.3420395 32.111519
158 -1.764457 32.255104
159 -1.593948 31.70989
173 -1.1132128 32.147305
174 -1.5053906 32.127522
175 -1.6600271 32.132721
176 -1.8162529 32.317204
187 -1.151145 31.853136
190 -1.1086228 32.088673
191 -1.298587 32.141266
192 -1.5382317 32.247368
194 -1.916876 32.164791
207 -1.0633829 32.164997
208 -1.2635936 32.200947
209 -1.5158207 32.266762
210 -1.612782 32.238655
224 -1.0737445 32.177589
225 -1.2464632 32.208912
226 -1.4252628 32.254494
227 -1.6028849 32.253937
241 -1.069877 32.199745
242 -1.2512614 32.217876
243 -1.4294038 32.246769
244 -1.5462403 32.278172
245 -1.7748065 32.314262
255 -1.2951343 32.197559
66 -0.085872002 31.558916
81 -0.66356701 31.848768
86 -0.41726199 31.372459
95 -0.75220299 31.77817
119 -0.58986402 31.743034
120 -0.1915125 31.601114
121 -0.27177361 32.0089
135 -0.21607301 31.473579
136 -0.271108 31.668276
137 -0.15761301 31.955811
138 -0.60199773 32.075699
139 -0.82606 31.921619
150 -0.96399599 31.762194
153 -0.094444335 31.702133
154 -0.24632536 32.093891
155 -0.68334103 32.07906
156 -1.0098161 32.250389
170 -0.106402 31.827736
171 -0.38530615 31.899412
172 -0.6960457 31.98394
173 -0.98544002 31.970531
186 -0.1426862 31.646282
187 -0.12141 31.887928
188 -0.44875982 31.943691
189 -0.73339385 32.025776
190 -0.94030297 32.060379
203 -0.10222483 31.89076
204 -0.26614982 31.997789
205 -0.5269888 32.052376
206 -0.79288465 32.121338
207 -0.97781932 32.122211
219 -0.017439418 31.835678
220 -0.16121353 31.973322
221 -0.39571488 32.048363
222 -0.62215859 32.081249
223 -0.82152992 32.126602
224 -0.96721208 32.152355
236 -0.064214051 31.984411
237 -0.23907126 32.023186
238 -0.4513005 32.070831
239 -0.61981815 32.109009
240 -0.83963728 32.140812
241 -0.95816076 32.143005
252 -0.021334499 31.775616
253 -0.11079318 31.992226
254 -0.2728605 32.07835
255 -0.57588857 32.070801
58 0.240063 31.499714
60 0.212345 31.483122
82 0.395475 31.814089
83 0.378737 31.941235
85 0.37558299 31.897676
86 0.369746 31.954157
88 0.40231401 31.767366
90 0.37093401 31.980347
96 0.37186435 31.946306
103 0.89215899 31.744648
104 0.32818401 32.21357
114 0.25727499 31.448812
119 0.71896291 31.76869
120 0.38580281 31.985773
135 0.87525827 31.829384
136 0.52821809 31.8269
137 0.13076986 32.042847
148 0.022042001 31.501389
151 0.9112581 31.677235
152 0.5632239 31.873857
153 0.1978945 32.001842
167 0.91929948 31.503429
168 0.63860625 31.68404
169 0.41487876 31.910065
170 0.081759252 31.973398
183 0.93267673 31.526203
184 0.70097148 31.614735
185 0.4893347 31.814827
186 0.24652712 32.007637
187 0.0577325 32.212952
199 0.91430348 31.553595
200 0.78643173 31.74884
201 0.52392483 31.814783
202.33333 0.21183097 31.928558
215 0.95118803 31.532452
216 0.80731899 31.706942
217 0.65538162 31.86585
218 0.3942644 31.902739
219 0.14477541 31.965639
220 0.048778776 32.258991
231 0.96549881 31.534002
232 0.85924065 31.659666
233 0.69725823 31.832785
234 0.47570163 31.922331
235 0.19604251 31.914057
236 0.075042941 32.073112
247 0.96439499 31.324099
248 0.85560334 31.671516
249 0.70257813 31.821434
250 0.61415899 32.045395
251 0.35158458 32.067757
252 0.14510611 32.02866
253 0.045592003 32.274094
255 0.58633798 31.884104
117 1.9098696 31.347973
118 1.650524 31.760979
119 1.3269652 31.992828
133 1.9074529 31.560434
134 1.573156 31.691832
135 1.3573875 31.937778
136 1.273416 32.316788
149 1.7980558 31.447088
150 1.6538945 31.733511
151 1.2659584 31.924538
152 1.086282 32.251846
165 1.8232182 31.562326
166 1.4596148 31.713366
167 1.4813828 32.042343
168 1.1898215 32.236694
181 1.7687571 31.58403
182 1.5506389 31.688625
183 1.5340801 32.027653
184 1.2799165 32.206673
185 1.010312 32.303329
196 1.9357094 31.482382
197 1.7116506 31.554909
198 1.5555245 31.721336
199 1.3490957 31.972189
200 1.218731 32.17078
201 1.038709 32.310658
211 2.0119901 31.330915
212 1.8919656 31.445129
213 1.6941091 31.595488
214 1.4977432 31.763371
215 1.4013094 31.932306
216 1.3183739 32.184475
217 1.1327823 32.280746
227 1.9805546 31.416895
228 1.8376237 31.485275
229 1.6719199 31.62855
230 1.5199912 31.752007
231 1.3615307 31.867393
232 1.3809658 32.167599
233 1.1163094 32.224934
243 1.9861435 31.460896
244 1.85013 31.566601
245 1.6533898 31.629572
246 1.5130622 31.736361
247 1.399609 31.888773
248 1.4513078 32.152878
249 1.1539431 32.258625
255 1.5729282 31.75852
57 2.9716339 32.092506
59 2.7635241 32.103333
70 2.418149 32.31427
76 2.8385899 32.133636
77 2.4365039 32.293484
79 2.6387839 32.21954
83 2.4887686 31.909616
86 2.719842 32.183243
88 2.7161531 31.890392
94 2.830652 31.604431
95 2.799427 31.787102
117 2.7182448 31.58596
118 2.4818735 32.113205
119 2.2544527 32.273037
121 2.307236 32.319122
122 2.5116251 32.281326
132 2.7039855 31.424112
133 2.4244852 31.687244
134 2.4576647 32.058762
148 2.6909957 31.56567
149 2.5091062 31.725367
150 2.3804705 32.005371
151 2.1891236 32.232109
163 2.9043865 31.403912
164 2.6057534 31.503944
165 2.4962695 31.77702
166 2.3499005 32.101543
178 2.9931581 31.313648
179 2.7265687 31.476921
180 2.3736329 31.630846
181 2.4706635 31.923122
182 2.2677028 32.039715
194 2.8749487 31.406116
195 2.521333 31.464233
196 2.4429736 31.674194
197 2.3743694 31.889826
198 2.2563007 32.07011
199 2.0921822 32.226349
210 2.7533903 31.434784
211 2.5652876 31.569952
212 2.4593923 31.729132
213 2.3607008 31.927849
214 2.2418861 32.12257
215 2.1117251 32.240044
224 3.0285499 31.320515
225 2.9149306 31.39012
226 2.6721866 31.467642
227 2.4830334 31.590309
228 2.4321826 31.805243
229 2.3559973 31.966833
230 2.2200835 32.085743
231 2.1093044 32.206413
240 2.9867105 31.356398
241 2.7823813 31.417402
242 2.5688722 31.523888
243 2.5151625 31.67498
244 2.4680371 31.840841
245 2.313112 31.966156
246 2.191855 32.087055
247 2.1325698 32.195999
255 2.4888031 31.653954
57 3.116317 32.032639
58 3.371805 31.926168
59 3.1681609 32.026134
61 3.9408569 31.682251
65 3.8775489 32.242931
66 3.551981 31.968433
70 3.1514449 32.12545
71 3.7109525 32.067039
72 3.4740965 31.897919
73 4.0052948 31.929428
74 3.2410941 31.989801
75 3.44836 31.891037
76 3.8875721 31.733858
77 3.4652531 31.890089
79 3.0435772 32.055389
81 3.9654839 32.183113
82 3.661818 31.803156
85 3.9616539 31.709261
86 3.8205705 32.025631
89 3.720612 31.618238
91 3.868315 31.732817
92 3.5036039 31.69393
94 3.9578819 31.598349
99 3.7944419 31.592928
101 3.298981 31.768009
108 3.873471 32.25872
116 3.5742779 31.463547
117 3.38205 31.839787
118 3.198457 31.989647
119 4.021204 32.272324
121 3.1215501 31.972633
131 3.3537538 31.330084
132 3.5211434 31.586655
133 3.3820994 31.855846
135 3.9299381 32.244934
136 3.9569421 31.661427
147 3.7400081 31.484682
148 3.2399964 31.639587
150 3.122803 32.043064
152 3.9420061 31.684839
154 3.118187 31.981314
162 3.7893641 31.362141
163 3.5487676 31.47961
164 3.5324974 31.736916
166 3.1221361 32.024143
178 3.6395166 31.422682
179 3.2473152 31.595278
180 3.1731772 31.821478
193 3.787648 31.384821
194 3.4411235 31.515381
195 3.4080548 31.672955
196 3.183846 31.823057
208 3.7400277 31.364672
209 3.5205102 31.437513
210 3.3560479 31.580576
211 3.1832976 31.718229
212 3.1035254 31.85931
223 3.9780226 31.324127
224 3.6849153 31.380989
225 3.4536839 31.495108
226 3.2885242 31.63122
227 3.1559522 31.786541
239 3.7865181 31.358931
240 3.5196028 31.424988
241 3.3587918 31.572203
242 3.2060282 31.706568
243 3.0918624 31.807617
254 3.8587391 31.325695
255 3.4357109 31.531214
55 4.1078739 31.402679
56 4.6892819 31.468765
58 4.5368381 32.240002
59 4.8910818 32.148251
60 4.6814504 31.949804
61 4.6305189 31.718428
66 4.3145657 32.095573
67 5.0403361 31.740839
68 4.7578802 31.603563
70 4.7101588 31.553331
71 4.6905975 32.161659
72 4.0884461 31.641273
73 4.8732419 31.362848
75 4.4045968 31.914467
78 4.5183668 32.169113
80 4.1266437 31.890326
81 4.2577281 31.863827
82 4.2739735 31.597065
83 4.084568 31.461853
87 4.5610189 31.575352
89 4.324317 31.452915
91 4.7459102 31.654043
92 5.0326228 31.999062
94 4.7378845 31.847435
95 4.9910469 31.501923
96 4.820549 31.578863
99 4.387825 31.939714
101.42857 4.6191492 31.59371
103 4.8685493 31.878998
109 4.824379 31.527266
110 4.9147382 31.596455
113 4.8028498 31.626841
115 4.9115982 31.923199
116 4.4920416 31.47262
117 4.6193848 31.551619
118 4.7744069 31.710617
119 4.8597279 31.935061
120 4.941328 32.207668
131 4.3561811 31.389624
132 4.597734 31.556957
133 4.6121807 31.660242
134 4.7609549 31.66894
135 4.8317513 31.85961
136 4.9166756 32.102962
146 4.224246 31.32342
147 4.1559529 31.418549
149 4.6061468 31.696236
151 4.8095365 31.812263
152 5.0165949 31.966303
162 4.18082 31.422388
165 4.5972538 31.69306
167 4.8714628 31.950399
177 4.3451691 31.400986
178 4.2904739 31.386955
191 4.5183859 31.746292
193 4.311059 31.407206
208 4.2310219 31.358023
223 4.1394572 31.338209
224 4.1338348 31.415037
226 4.1291699 31.611845
239 4.1360898 31.377165
240 4.0541525 31.447821
254 4.2033262 31.349468
255 4.1915154 31.410576
55 5.5554008 31.945274
56 5.4347472 32.128651
57 5.1026478 32.177067
59 5.6690297 31.642406
60 5.666666 31.565395
61 5.3354168 32.124775
62 5.6764317 31.833611
64 5.2903719 31.799831
66 5.1103301 31.914017
67 5.5203648 31.819424
71 5.2458549 32.218307
74 5.7901049 31.557354
77 5.8303356 31.641632
78 5.1764798 32.042332
80 5.0733738 31.799416
81 5.4463291 31.539829
85 5.4901042 31.697695
87 5.8123507 31.582666
88 5.6283112 31.864077
90 5.442977 32.105698
91 5.6087952 32.06274
92 5.4340878 31.66358
96 5.1787848 32.308105
98 5.7827311 32.009655
101.5 5.6814547 31.665588
103 5.1109571 31.676521
104 5.292285 31.759184
105 5.4296637 32.029354
106 5.5696974 32.242851
108 6.0170178 32.155502
114 5.3130422 31.476784
115 5.3974972 31.634876
117 5.4362926 31.923054
118 5.3182392 31.76033
119 5.1166158 31.474859
120 5.1697378 31.798738
121 5.2695274 31.916239
122 5.3915257 32.066593
123 5.5531464 32.128624
124 5.6171403 32.207592
128 5.3300762 31.663542
130 5.3271761 32.075565
133 5.3231568 32.083885
135 5.0913219 31.422749
136 5.1256323 31.72361
137 5.22153 31.803684
138 5.3978043 31.837351
139 5.4960809 31.941395
140 5.5121622 31.946831
141 5.8146572 32.077263
143 5.8462939 31.542187
147 5.5105076 31.683907
154 5.6319251 31.693436
156 5.8120999 31.554438
165 5.2600579 32.039459
169 5.567739 32.092632
175 5.6739359 31.863663
188 5.5309281 31.768064
225 5.634316 31.744909
226 5.7511802 31.792622
234 5.479599 32.19698
243 5.635695 31.869202
255 5.6819215 31.796175
126 6.122963 31.837677
92 9.837635 31.519209
81 10.678435 32.040829
114 10.615786 31.972374
59 -11.244432 32.803867
62 -11.156224 32.950485
64 -11.185275 32.898808
69 -11.168405 32.967083
70 -11.279978 32.795395
71 -11.203958 32.881516
85 -11.260393 32.798637
88 -11.26571 32.92778
90 -11.193385 32.93679
92 -11.206381 32.921608
93 -11.407595 32.526665
95 -11.277404 32.838539
96 -11.361392 32.65971
97 -11.356955 32.675716
98 -11.383284 32.553555
99 -11.331774 32.693138
100 -11.305847 32.797466
101.58334 -11.307175 32.763851
103 -11.286118 32.85482
104 -11.288637 32.857227
105 -11.228909 32.947987
106 -11.124876 33.209164
113 -11.410414 32.556995
114 -11.227541 32.955734
132 -11.47526 32.434784
133 -11.39625 32.616379
134 -11.258691 32.920685
135 -11.150401 33.094856
153 -11.30086 32.851742
170 -11.531493 32.35289
171 -11.482666 32.4557
172 -11.408974 32.621464
173 -11.287306 32.870056
174 -11.215692 33.04623
175 -11.134749 33.198463
190 -11.490934 32.439392
191 -11.421295 32.551491
192 -11.335439 32.776958
193 -11.246398 33.034756
194 -11.214276 33.070385
195 -11.140534 33.210991
209 -11.549519 32.332733
210 -11.45256 32.526325
211 -11.398981 32.642277
212 -11.347845 32.755135
213 -11.26529 32.935299
214 -11.186893 33.098717
215 -11.140436 33.188633
228 -11.495786 32.359402
229 -11.501924 32.455276
233 -11.269918 32.947502
234 -11.183498 33.070831
235 -11.13899 33.253006
250 -11.393577 32.672253
251 -11.344942 32.735355
255 -11.346828 32.79686
58 -11.029522 32.980923
59 -11.10126 33.12043
61 -10.815914 33.249557
64 -10.735806 32.936531
66 -10.564423 33.173912
70 -10.888389 33.249454
75 -11.040366 33.237438
78 -10.818392 33
88 -11.006846 33.237026
90 -10.985762 33.2948
91 -11.06621 33.284092
92 -10.884812 33.143005
93 -11.078218 33.206921
95 -11.104918 33.052204
96 -11.029796 33.288071
102 -11.060522 33.308144
104 -11.063461 33.253616
105 -11.025061 33.186615
106 -11.095201 33.283791
115 -11.101688 33.313499
135 -11.037449 33.239887
136 -11.072052 33.270073
176 -10.71654 33.075348
196 -11.090907 33.298176
216 -11.077589 33.307762
55 -9.5070782 32.907394
59 -9.3336372 32.842258
60 -9.6082039 32.754009
61 -9.6074324 32.638226
62 -9.5017385 32.76239
63 -9.4394035 32.758633
64 -9.3377943 32.828873
65 -9.5411091 32.787308
66 -9.5232944 32.755165
67 -9.8922148 32.696079
68 -9.5590601 32.899662
69 -9.279542 32.530716
72 -9.8134298 32.729923
73 -9.1072779 32.423199
74 -9.1403961 32.600311
75 -9.3725977 32.856586
76 -9.6443882 33.014263
80 -9.6117554 32.636997
85 -9.9261026 32.80014
86 -9.5216303 32.663612
88 -9.3441334 32.848572
89 -9.4090433 32.893887
94 -9.7504549 32.733891
97 -9.6413584 32.669739
98 -9.5804377 32.897655
99 -9.4118452 32.846275
100 -9.1353369 32.839676
101.5 -9.4519348 32.926346
103 -9.4950905 32.594513
104 -9.4665852 32.886642
105 -9.6030102 32.924755
111 -9.4361267 32.806801
112 -9.4708004 32.866879
113 -9.313448 32.533115
131 -9.2571783 32.812553
132 -9.5891085 32.875961
137 -9.4434118 32.859707
141 -9.6240816 32.621002
142 -9.6128397 32.950447
150 -9.1763792 32.768665
151 -9.3377323 32.849026
169 -9.1750479 32.817421
170 -9.3180552 32.810692
171 -9.6759892 32.8246
175 -9.6747923 32.998428
179 -9.6045027 32.871723
180 -9.6069431 32.888504
188 -9.330142 32.839722
189 -9.439538 32.843216
190 -9.7157545 32.884338
206 -9.1687374 32.752151
207 -9.2611122 32.790276
208 -9.3828573 32.873119
209 -9.5628605 32.859032
210 -9.5910139 32.950336
221 -9.2746658 32.569424
225 -9.1510391 32.754459
226 -9.3163061 32.830807
227 -9.4147167 32.841511
228 -9.5300941 32.927925
229 -9.5161495 32.882362
241 -9.77283 33.001984
244 -9.1360626 32.727634
245 -9.2946281 32.814228
247 -9.4366961 32.915977
249 -9.6109028 32.999596
255 -9.5341578 32.874577
55 -9.0802622 32.717308
56 -8.4290571 32.696171
62 -8.4191914 32.675201
67 -8.2226696 33.014824
68 -8.7708292 32.547974
70 -8.964345 32.378834
73 -8.5639496 32.693981
76 -8.5101023 32.443565
87 -8.243886 32.500942
88 -8.1078215 32.437504
89 -9.0086899 32.437286
91 -9.0520172 32.690258
92 -8.1935358 32.682781
94 -9.0667648 32.427391
97 -8.3078604 32.419533
98 -8.9459753 32.381416
102 -8.3117409 32.935047
128 -8.6795111 32.384087
130 -8.8925209 32.740616
131 -9.0810566 32.748032
149 -8.854003 32.727642
150 -9.0309715 32.745594
166 -8.4215841 32.613056
167 -8.4989767 32.737118
168 -8.6487684 32.804653
169 -8.6832476 32.91634
170 -8.2091227 33.215008
184 -8.4934349 32.583344
185 -8.5571461 32.602772
186 -8.5138168 32.744102
187 -8.5107956 32.890984
188 -8.3091373 33.070976
189 -8.2091637 33.232349
190 -8.1008978 33.309055
202.77777 -8.5195141 32.534771
204 -8.592495 32.596329
205 -8.5591202 32.742233
206 -8.6426544 32.83004
207 -8.2887678 33.058849
208 -8.2008743 33.232975
220 -8.4805698 32.498188
222 -8.5742388 32.550941
223 -8.6865025 32.609806
224 -8.77001 32.674385
225 -8.3433685 32.905281
226 -8.3066616 33.03495
227 -8.2393045 33.126614
239 -8.4913359 32.488327
241 -8.6288633 32.558201
242 -8.7605085 32.585899
243 -8.374299 32.82193
244 -8.3604326 32.835606
255 -8.6177902 32.568237
57 -7.8613391 32.838699
58 -7.9802971 32.78067
59 -8.0347757 32.46722
62 -7.884058 32.874298
63 -7.8661289 32.695496
64 -7.937921 32.937714
67 -7.5257878 33.161705
73 -7.938611 32.948883
74 -7.8606062 32.90958
77 -7.8478241 32.895813
79 -8.047596 32.783356
80 -7.8508611 32.862118
83 -7.9367528 32.83662
93 -7.5730195 33.222992
132 -7.376699 33.313179
133 -7.6456041 33.188843
137 -7.832715 33.150906
170 -8.0553188 32.828743
190 -7.7302079 33.269005
205 -7.8534522 32.739937
251 -7.6572661 33.148388
55 -6.9004145 32.83149
56 -6.835865 32.950909
57 -6.6717701 33.17083
58 -6.456543 33.084122
62 -6.5758495 32.913712
65 -6.5077672 33.018658
66 -6.6788402 32.879704
71 -6.7114272 32.92511
72 -6.6809359 32.937164
73 -6.6999812 33.005165
74 -6.7664509 32.906235
129 -6.7001162 33.027855
130 -6.4205594 32.802567
131 -6.8153124 32.94434
132 -6.5353179 32.682404
149 -6.771348 33.053608
150 -6.586432 33.137119
157 -6.8762689 32.998127
167 -6.9121418 33.195351
197 -6.6269751 33.210934
55 -5.627852 32.426464
56 -5.7041197 32.571445
63 -5.4223828 32.518372
64 -5.442534 32.655815
65 -5.3717451 32.648712
68 -5.3691349 32.576176
78 -5.078052 33.032074
80 -5.2525301 32.841999
87 -5.0622988 32.519245
101 -5.258204 33.322735
112 -5.2368188 33.168194
127 -5.429853 32.8186
129 -5.3167882 33.19421
144 -5.1610942 32.848465
151 -5.2779808 33.251041
191 -5.388586 32.601009
192 -5.570282 32.766815
212 -5.5794368 32.710316
214 -5.9838791 32.591167
229 -5.3037233 33.196808
230 -5.433825 32.713539
57 -4.6730919 32.718956
62 -4.991828 33.294033
66 -4.9266858 32.365757
81 -4.5418782 33.271473
148 -4.689064 33.31303
151 -4.7232132 33.291393
188 -4.8484182 33.229584
222 -4.1113253 33.30455
240 -4.0718336 33.307419
241 -4.0905089 33.280777
255 -4.149858 33.309784
55 -3.6334441 32.940426
61 -3.0382121 32.611462
65 -3.200103 32.776703
79 -3.19924 32.870056
91 -3.401983 32.860157
96 -3.7976971 33.16877
101 -3.494333 33.022228
107 -3.1771941 32.628105
122 -4.0007911 33.232224
124 -3.088033 32.677357
127 -3.4094718 33.243279
128 -3.636241 33.311726
129 -3.5295069 33.326096
144 -3.126457 33.082817
145 -3.226685 33.050709
146 -3.6726704 33.22821
147 -4.0335269 33.329811
162 -3.0540659 33.181877
163 -3.2438293 33.074108
164 -3.4788668 33.065247
180 -3.0891597 32.87693
181 -3.2362955 33.18074
182 -3.4904115 33.214157
183 -3.6871443 33.212177
184 -3.943444 33.286171
188 -3.8262 32.357395
198 -3.0506835 32.918724
199 -3.1876414 33.124863
200 -3.4534628 33.206512
201 -3.6860943 33.255371
202.15384 -3.90131 33.255409
216 -3.0549085 33.097672
217 -3.1700487 33.096828
218 -3.3708317 33.155876
219 -3.562546 33.179287
220 -3.7695167 33.24078
221 -3.9561145 33.274685
234 -3.0490875 33.043087
235 -3.199614 33.148273
236 -3.3569782 33.16016
237 -3.5345619 33.17989
238 -3.6934972 33.208397
239 -3.8618982 33.261246
240 -3.9961035 33.278164
252 -3.0520413 33.152275
253 -3.1590514 33.158695
254 -3.2916543 33.127827
255 -3.4854498 33.138962
55 -2.8906181 32.737404
64 -2.4467101 32.422726
71 -2.7338181 32.613747
73 -3.022737 32.359337
82 -2.6245227 32.550446
90 -2.3436794 32.788189
98 -2.1764989 32.895344
107 -2.515873 32.886002
124 -2.1345928 32.927807
125 -2.3083701 33.133183
126 -2.9386864 33.133472
142 -2.1410878 32.846172
143 -2.4591811 33.091263
144 -2.7604682 32.943859
159 -2.1155581 32.511051
160 -2.1987574 33.003159
161 -2.540915 33.150887
162 -2.8786213 33.033211
177 -2.188915 32.713665
178 -2.2800558 33.144009
179 -2.676693 32.97897
180 -2.9389942 33.068222
193 -2.0899501 32.325336
194 -2.050292 32.767429
195 -2.272671 32.833744
196 -2.4520874 33.041698
197 -2.7200487 32.963799
198 -2.9179418 33.037403
211 -2.0359747 32.595814
212 -2.1231296 32.799454
213 -2.3271244 32.935417
214 -2.5665145 32.974747
215 -2.7840886 33.021774
216 -2.9589102 33.08123
229 -2.0795708 32.757324
230 -2.2000594 32.943577
231 -2.3908324 32.992199
232 -2.5761554 33.027431
233 -2.7799287 33.021053
234 -2.9365456 33.069992
246 -2.0297565 32.705475
247 -2.1204357 32.799992
248 -2.2727852 32.977928
249 -2.479681 32.940952
250 -2.6319294 33.085663
251 -2.8289442 33.115963
252 -2.9787421 33.187649
255 -2.453948 33.00724
93 -1.059109 32.837704
98 -1.395875 33.10453
99 -1.718541 33.237354
106 -1.5242895 32.44809
123 -1.327792 32.847099
124 -1.6843436 33.0158
136 -1.9480079 32.332539
140 -1.2835697 32.832508
141 -1.553576 32.973377
142 -1.860912 33.169918
157 -1.1207176 32.718849
158 -1.5255327 32.878021
159 -1.9493343 32.970428
160 -2.0010159 33.291248
173 -1.116554 32.471249
174 -1.2589532 32.672695
175 -1.4744684 32.836136
176 -1.7418494 32.98991
177 -1.9382657 33.0261
190 -1.126789 32.381119
191 -1.1667105 32.632641
192 -1.393222 32.804337
193 -1.6481062 32.94178
194 -1.9197811 32.941963
195 -1.946296 33.2994
207 -1.0673585 32.442604
208 -1.1861039 32.670708
209 -1.3427539 32.806026
210 -1.5583962 32.877762
211 -1.801471 32.91478
212 -1.9433396 33.140465
224 -1.0710702 32.477371
225 -1.1821531 32.606567
226 -1.310112 32.787582
227 -1.5144975 32.873371
228 -1.7683938 32.879295
229 -1.9154627 33.044643
230 -1.9655188 33.294483
241 -1.0663973 32.505981
242 -1.1617913 32.705837
243 -1.3146653 32.749908
244 -1.4282727 32.887905
245 -1.6718068 32.877579
246 -1.8724828 32.868099
247 -1.9246035 33.23399
255 -1.471616 32.829552
69 -0.41674301 33.303886
72 -0.069126002 33.312164
90 -0.41257599 32.600578
105 -0.30851451 32.925484
106 -0.38123399 33.260799
121 -0.207169 32.450775
122 -0.6820482 32.644554
123 -0.46460101 33.328636
137 -0.085266002 32.39938
138 -0.47546974 32.524223
139 -0.57466751 32.884121
140 -0.78183192 33.139557
154 -0.20166001 32.500622
155 -0.40784544 32.617931
156 -0.60008746 32.804363
157 -0.66681659 33.162926
171 -0.17659099 32.489544
172 -0.4673793 32.638664
173 -0.64480287 32.82515
174 -0.69428003 33.149326
187 -0.084706001 32.424118
188 -0.32416147 32.45826
189 -0.46590084 32.690819
190 -0.67109495 32.87389
191 -0.66361755 33.147224
204 -0.14923839 32.445316
205 -0.2678456 32.618011
206 -0.47729462 32.749252
207 -0.63945681 32.89325
208 -0.74264169 33.122509
209 -0.83785582 33.284973
220 -0.08907827 32.40102
221 -0.19283231 32.532845
222 -0.36292481 32.643139
223 -0.51314783 32.748352
224 -0.65747494 32.873356
225 -0.72275901 33.103615
226 -0.84875268 33.221317
227 -0.99754149 33.299355
236 -0.019421 32.334507
237 -0.09187717 32.455585
238 -0.23975232 32.546726
239 -0.37783775 32.637096
240 -0.5434463 32.722298
241 -0.67290753 32.886452
242 -0.70720333 33.136177
243 -0.80457789 33.255589
244 -0.95964801 33.327545
253 -0.057044338 32.358524
254 -0.142506 32.441822
255 -0.48295012 32.758579
58 0.419911 33.132187
60 0.74517703 32.987358
66 0.65505201 33.049309
67 0.91322798 32.753567
68 0.262205 33.193047
70 0.095076002 33.283794
72 0.73807198 33.000694
74 0.65156603 33.056137
75 0.060771 33.268684
76 0.2940475 33.16753
78 0.92225701 32.925476
79 0.010791 33.283745
82 0.73238599 33.00285
83 0.33948898 33.174644
92 0.413537 33.121998
94 0.27814001 32.504753
96 0.54906976 32.646049
104 0.413378 32.62669
120 0.396101 32.471863
121 0.38893116 32.665314
122 0.31266916 33.058468
136 0.79512203 32.344292
137 0.35728815 32.515301
138 0.41666675 33.003174
139 0.081920505 33.103386
142 0.65167397 33.000355
152 0.78668547 32.39238
153 0.73289073 32.541134
154 0.47250599 32.78846
155 0.20674749 32.928692
156 0.046969999 33.139599
169 0.7781257 32.490688
170 0.58381689 32.670574
171 0.339499 32.736248
172 0.340433 32.998806
185 0.90532851 32.423599
186 0.57825667 32.524197
187 0.39790154 32.684978
188 0.27567226 32.904854
189 0.1641904 33.023521
201 0.87018216 32.360218
202.61403 0.55460751 32.527782
204 0.28338128 32.69696
205 0.21658678 32.912277
206 0.065216735 33.047276
217 0.95272666 32.364754
218 0.81354743 32.431595
219 0.62782991 32.531414
220 0.36069602 32.62616
221 0.26824605 32.809021
222 0.17757821 32.941051
223 0.057365745 33.0592
234 0.83112568 32.398594
235 0.67398775 32.494831
236 0.46644115 32.558468
237 0.33145338 32.704529
238 0.25368792 32.832062
239 0.16225211 32.957615
240 0.072963007 33.049717
250 0.87903136 32.374222
251 0.71074551 32.411617
252 0.65289396 32.550911
253 0.38354096 32.600433
254 0.29531434 32.734386
255 0.35243943 32.714504
58 1.46773 32.675171
59 1.236518 32.805763
64 1.8063695 33.000946
66 1.237607 32.79842
67 1.5415986 32.661201
68 1.880087 32.921749
69 1.3126614 32.777905
70 1.954159 32.821625
71 1.387867 32.752136
72 1.564611 32.662201
73 1.489051 32.697441
74 1.1518871 32.825748
75 1.8784095 32.523125
76 1.1929065 32.808899
80 1.702563 32.617989
81 1.393208 32.733337
82 1.7460705 32.577156
95 1.6708912 32.558609
97 1.9185956 33.002007
118 1.914189 33.213455
119 1.7750065 32.413818
120 1.4873767 32.594765
121 1.5647888 32.831047
135 1.8186793 32.364189
136 1.2814264 32.513298
137 1.230211 32.718994
138 1.900593 32.826015
139 1.922038 33.172203
151 1.7557636 32.381802
152 1.4106371 32.570251
168 1.3371896 32.393356
169 1.2058595 32.587189
184 1.268052 32.352283
185 1.3418255 32.547241
186 1.0404224 32.561981
200 1.6153836 32.384995
201 1.2774636 32.486038
202.16667 1.1156496 32.614498
216 1.7003899 32.354843
217 1.346965 32.423317
218 1.1840281 32.533291
219 1.0424101 32.642609
232 1.7022825 32.343937
233 1.392242 32.380749
234 1.2157243 32.48101
235 1.0818598 32.644573
248 1.6991333 32.358753
249 1.452051 32.38464
250 1.1681451 32.442226
251 1.1798282 32.591595
252 1.0803952 32.664764
255 1.3168806 32.486526
57 2.020627 33.205196
59 2.1390779 32.851158
62 2.9101501 32.694588
73 2.231643 32.402161
78 2.1899259 32.398598
95 2.2413809 32.783836
119 2.2361376 32.401531
120 2.180268 32.707272
121 2.1852117 32.597717
128 2.0958569 32.561142
135 2.340415 32.321609
137 2.290931 32.718922
138 2.4350448 32.727867
152 2.1561501 32.413544
154 2.069237 32.701855
155 2.8346524 32.647297
156 2.8760419 32.562897
184 2.0297279 33.229206
207 2.8874431 32.666759
209 2.144289 32.923042
59 3.4039049 32.552986
61 3.8832741 32.432098
63 3.4514 32.488518
64 3.711915 32.425056
65 3.3234711 32.45298
69 3.3444271 32.502983
78 3.441514 32.604179
92 3.6422501 32.541908
96 3.3331261 32.533203
103 3.727268 32.52095
104 3.5484951 32.435051
110 3.631876 32.435627
119 3.7596753 32.411095
120 3.4929135 32.515289
136 3.4752171 32.454086
137 3.3814518 32.630035
152 3.5642719 32.439556
153 3.7437429 32.436771
181 3.2899721 32.454151
255 3.502367 32.462746
55 4.9260588 32.6614
62 4.6498742 32.472385
66 4.952466 33.11887
67 4.673079 32.51524
76 4.792727 32.773487
79 4.68928 32.56802
80 4.8409958 32.878319
81 4.9682269 33.177376
82 4.838129 32.887615
83 5.0296779 33.013897
96 4.967999 32.614834
104 4.8937449 32.656448
105 5.046576 32.981693
119 4.7842155 32.344051
120 4.8756986 32.440052
121 4.9581461 32.569214
122 5.0139122 32.851665
132 4.9959302 32.527313
136 4.7774143 32.347061
137 4.8752789 32.490711
139 5.0256319 32.922558
156 5.036561 32.833443
55 5.2837849 33.184429
56 5.3274312 33.05389
57 5.2057447 32.741581
59 5.2099552 33.095207
61 5.6474128 32.63303
64 5.3203211 32.36879
65 5.5228543 32.827568
66 5.3343482 32.402176
67 5.5350418 32.820457
68 5.2233248 32.71022
69 5.6800566 32.859818
70 5.2717872 33.039722
72 5.46842 33.084778
74 5.6345491 33.034058
77 5.246408 33.080479
78 5.9734492 32.406906
82 5.4691191 32.870735
83 6.006134 32.953697
84 5.443449 32.574059
87 5.655056 33.063808
91 5.7084866 32.662224
93 5.868865 32.664085
94 5.5790262 32.929058
95 5.1490541 33.041653
96 5.418088 32.694649
97 5.7027531 32.732784
98 5.6066556 32.864292
99 5.6272812 32.933182
100 5.634563 32.991909
101 5.9466858 33.027012
105 5.1987615 32.580284
106 5.3759375 32.795044
107 5.5833683 32.898235
108 5.7536268 32.932259
109 5.9541163 33.162254
110 5.6608553 32.888561
116 5.2863412 32.344467
117 5.1584911 32.926422
118 5.4268932 33.269939
119 5.3538079 32.69524
120 5.3930426 32.609638
121 5.1407075 32.589573
122 5.2408414 32.633297
123 5.3425927 32.832069
124 5.5124264 32.868324
125 5.659585 32.914665
126 5.7982116 32.986588
127 5.923636 33.111561
128 6.0135446 33.210754
130 5.896101 32.635048
133 5.6536808 32.928043
134 5.2741361 33.285831
137 5.1041322 32.38427
138 5.1201715 32.464703
139 5.4743094 32.812313
140 5.5388122 32.725666
141 5.3334227 33.025932
142 5.6389561 32.610344
143 5.7230301 33.003868
144 5.6971459 33.195873
145 5.9259343 33.134785
146 6.0255041 33.170486
151 5.3025451 32.487041
155 5.0960994 32.717945
157 5.398447 32.431206
159 5.459847 33.07579
160 5.6888242 32.558075
178 5.5857506 33.240047
90 6.1531472 33.290714
100 6.0697489 33.279781
101.5 6.112555 33.257721
124 6.107542 33.23621
127 6.0696578 33.117283
128 6.1132288 33.28598
129 6.1591668 33.272797
90 10.621737 33.013336
114 10.803493 33.181046
132 10.526818 32.894981
133 10.668595 33.141376
151 10.366622 32.929771
152 10.47778 33.122059
153 10.696388 33.086742
155 11.069357 33.23428
172 10.861442 33.188026
214 10.906485 33.224228
235 10.473989 33.181366
255 10.539352 32.937889
57 11.213666 33.301971
63 11.336692 32.83176
83 11.387217 33.085114
135 11.126848 33.112339
151 11.420282 32.915089
55 -10.698488 34.0662
56 -10.632938 34.058586
58 -10.842886 33.638069
59 -10.493147 34.324898
60 -10.658352 33.781353
61 -10.308282 33.79731
62 -10.516377 33.925755
67 -10.697467 34.011372
71 -10.723748 33.995258
73 -10.629601 33.971786
75 -10.953008 33.444157
77 -10.607065 33.693356
81 -10.935623 33.479156
82 -11.011052 33.389137
83 -10.58988 34.249176
84 -11.021023 33.349518
85 -10.84671 33.415089
86 -10.552185 34.230495
87 -10.903864 33.607128
89 -10.710999 34.050415
90 -10.945187 33.345364
92 -10.659666 34.089863
94 -10.814121 33.580776
95 -10.899768 33.521133
96 -10.850822 33.751713
97 -10.744617 33.842701
98 -10.751478 33.901505
99 -10.757195 33.703709
100 -10.836449 33.765648
101.66666 -10.634435 33.831455
103 -10.790983 33.717987
104 -10.743664 34.049793
105 -10.844289 33.84399
106 -10.853275 33.833172
107 -10.880585 33.770145
108 -10.619731 34.011688
109 -10.306314 34.045216
117 -10.724047 34.032337
126 -10.461744 33.63612
135 -10.818667 33.704891
136 -10.758903 33.609249
137 -10.80997 33.70216
138 -10.754887 34.009472
139 -10.594674 34.227398
156 -11.016067 33.40852
157 -10.678146 33.578972
158 -10.200903 33.976059
160 -10.641835 34.25021
174 -10.570107 33.669205
175 -10.80151 33.739193
178 -10.807128 33.831299
179 -10.414193 33.951626
180 -10.69935 34.203796
195 -10.781394 33.387432
196 -11.05746 33.401421
197 -10.809425 33.646935
198 -10.923513 33.653419
199 -10.838793 33.808273
200 -10.702012 33.943707
201 -10.712917 34.124725
202 -10.657631 34.276814
217 -11.012874 33.51955
218 -10.841477 33.702465
219 -10.899177 33.693817
220 -10.850686 33.837925
221 -10.756062 34.031342
222 -10.707541 34.159729
223 -10.644672 34.283268
225 -10.140594 33.941906
236 -11.077577 33.349716
237 -11.026415 33.487221
238 -10.779127 33.53801
240 -10.423187 34.058601
242 -10.760963 34.058216
243 -10.725419 34.160812
244 -10.390182 34.212845
246 -10.120291 33.929436
255 -11.027617 33.471542
142 -10.083104 34.046738
56 -8.2599268 33.677216
72 -8.284667 34.07515
75 -8.1769915 33.367897
81 -8.3137217 34.260124
86 -8.2695923 34.021553
87 -8.0863762 33.500179
97 -8.3494663 34.267448
106 -8.233449 34.142651
115 -8.2887936 34.012848
119 -8.118083 34.153217
120 -8.2981138 33.772919
134 -8.2397051 33.916443
135 -8.2758636 34.101044
136 -8.1516533 34.240601
151 -8.1074009 33.33593
154 -8.2894955 33.933346
155 -8.2715063 33.971741
171 -8.370841 34.267769
189 -8.1120424 33.331135
190 -8.1768112 33.779907
208 -8.0911703 33.361839
209 -8.2634754 34.0452
255 -8.1682844 34.273533
56 -7.844913 33.680847
59 -7.8044429 33.451241
60 -7.720068 33.941944
64 -7.3928628 33.341129
81 -7.8678021 34.045563
86 -7.5192628 33.858143
88 -7.3853402 33.998444
94 -7.4680243 33.712353
95 -7.8532829 33.64732
96 -7.4310694 33.762127
97 -7.420187 33.884415
98 -7.5878372 33.75568
100 -7.7196651 33.985077
101.33334 -7.5397544 33.915119
103 -7.4258122 33.874477
104 -7.563467 33.887577
105 -7.4187608 33.650997
107 -7.451272 33.942238
113 -7.4146371 33.621849
114 -7.5189619 33.861755
125 -7.7998419 33.472031
131 -7.230669 33.514931
133 -7.3954144 33.880814
134 -7.5930853 33.883766
135 -7.5049233 34.082088
136 -7.6264677 33.963341
137 -7.4890442 33.962654
138 -7.6424189 33.896561
139 -7.7032518 33.846764
143 -7.2786469 34.23196
151 -7.2533331 33.575073
152 -7.438633 33.840576
153 -7.4403563 33.858238
154 -7.6685972 34.134254
158 -7.4146137 33.948849
159 -7.6646056 33.910103
169 -7.5103288 33.626064
172 -7.3670125 33.862541
173 -7.6576872 33.807453
175 -7.6264191 33.705338
180 -7.5814161 33.840252
181 -7.5813642 33.967106
200 -7.411324 33.968918
202 -7.7109661 33.86005
255 -7.2137618 33.543499
56 -6.4523931 34.288906
60 -6.6373572 34.255188
74 -6.4029212 34.216934
94 -6.2769938 34.176254
97 -6.36759 34.248295
100 -6.1180878 34.091934
111 -6.724566 34.313942
114 -6.382514 34.240513
129 -6.7246509 33.865257
135 -6.4271588 34.219498
154 -6.1850681 34.189007
155 -6.2936077 34.169647
173 -6.092875 34.243256
175 -6.5252829 34.296597
186 -6.629302 34.300499
193 -6.1266103 34.251049
194 -6.2547159 34.234219
195 -6.3770089 34.324249
213 -6.1384654 34.210369
214 -6.2671204 34.259628
215 -6.4322934 34.281868
216 -6.5785308 34.300659
233 -6.1215749 34.22604
234 -6.2925797 34.27195
235 -6.4584641 34.290222
236 -6.6045103 34.330059
253 -6.1257687 34.255726
255 -6.3054466 34.252602
55 -6.027112 34.011524
56 -5.0913038 33.471493
62 -5.774384 33.894367
75 -5.892405 33.969028
83 -5.4935975 33.794235
91 -5.6423669 34.130192
93 -5.3061671 33.809437
95 -5.1081018 33.931435
98 -5.7384849 34.188511
104 -5.9327869 33.998249
105 -5.9047689 33.968719
113 -5.757813 33.945492
126 -5.5241199 33.843231
129 -5.2992959 33.812386
130 -5.2046461 33.739639
131 -5.1611352 34.007694
132 -5.3985381 34.125477
134 -5.120369 33.818588
136 -5.3126078 33.698429
147 -5.2468982 33.741325
148 -5.3009038 33.769012
150 -5.0769529 33.814831
151 -5.2495589 34.107059
152 -5.7033939 34.238457
153 -5.9390984 34.25816
161 -5.1595469 33.666714
168 -5.0876641 33.732117
169 -5.1646976 33.814995
170 -5.1977477 34.011135
171 -5.3751173 34.15638
172 -5.7828345 34.18956
173 -5.8911519 34.073177
188 -5.0909982 33.738605
189 -5.1994696 33.899033
190 -5.3785076 34.001446
191 -5.6015882 34.066666
192 -5.8359766 34.158569
193 -6.0143561 34.163792
207 -5.101748 33.794949
208 -5.1303625 33.999523
209 -5.316081 34.043869
210 -5.5075278 34.099136
211 -5.7006235 34.156033
212 -5.8951364 34.200901
213 -6.0160713 34.203091
227 -5.1053667 34.044243
228 -5.2640996 34.069618
229 -5.4318871 34.103264
230 -5.6118379 34.139626
231 -5.7644734 34.136356
232 -5.9325409 34.169933
233 -6.0434618 34.148109
246 -5.0923986 34.059978
247 -5.180553 34.149117
248 -5.3581915 34.099869
249 -5.5342317 34.121849
250 -5.6758652 34.117451
251 -5.8411436 34.19421
252 -5.9636507 34.101883
255 -5.3253217 34.081688
55 -4.2119851 34.176414
57 -4.1385193 34.226349
59 -4.2340379 33.336117
61 -4.5360632 33.856689
64 -4.0844641 34.062813
66 -4.803081 33.50523
68 -4.1699548 34.329594
88 -4.6262488 33.718761
99 -4.5379601 33.708794
101.66666 -4.7562394 33.989368
103 -4.4411049 34.225586
110 -4.064219 33.610703
111 -4.779469 34.097893
112 -4.1086259 34.334335
129 -4.4578967 33.575775
130 -4.4427037 34.058346
131 -4.4794054 34.229263
139 -4.2120328 33.853592
147 -4.0785642 33.438965
148 -4.2405252 33.755352
149 -4.4579597 34.060963
150 -4.4967756 34.192509
166 -4.1617236 33.646294
167 -4.4032254 33.914043
168 -4.4649701 34.052788
169 -4.4697385 34.113007
185 -4.1901565 33.723034
186 -4.4445138 33.773285
187 -4.6095228 33.953499
188 -4.4352117 34.131699
189 -4.6246595 34.292938
203 -4.1352782 33.423267
204 -4.2088432 33.832058
205 -4.4630909 33.820503
206 -4.6574774 33.95068
207 -4.8828478 33.915215
208 -4.9049697 34.0411
221 -4.0661564 33.39323
222 -4.1514554 33.567638
223 -4.2705183 33.837959
224 -4.4925971 33.870884
225 -4.6701155 33.942501
226 -4.8225684 33.988495
227 -4.9321294 34.106461
240 -4.1021767 33.443829
241 -4.1563296 33.853661
242 -4.3627691 33.8475
243 -4.5341473 33.885948
244 -4.6973195 33.997284
245 -4.8519659 34.042755
246 -4.89361 34.030495
255 -4.4738755 33.925968
55 -3.7665365 34.087795
56 -3.7311463 33.908813
57 -3.7873325 33.919773
58 -3.8971186 34.059998
59 -3.8654139 33.92984
60 -3.7732439 33.942314
61 -3.9295061 34.185879
62 -3.9656279 34.072338
64 -3.8709691 33.95713
65 -3.9261534 34.128162
66 -3.9473925 34.082878
67 -3.734602 34.04393
71 -3.893584 33.899319
72 -3.822474 33.976612
82 -3.787313 34.168121
88 -3.9818039 34.212009
89 -3.6222377 33.834473
97 -3.931217 34.219116
100 -3.40978 33.817928
101.5 -3.7174275 33.677994
103 -4.0386591 34.246208
109 -3.5154669 33.635899
111 -3.7593164 33.908852
127 -3.2531443 33.583412
128 -3.5551329 33.81432
129 -3.8209882 33.649956
130 -3.8328407 34.087841
131 -4.0206952 34.297569
145 -3.2484357 33.563869
146 -3.46454 33.830006
147 -3.7485673 34.138905
148 -3.6465416 33.83955
149 -3.8466504 34.106655
150 -3.9865649 34.186543
163 -3.1316748 33.544895
164 -3.3231375 33.730595
165 -3.4232979 34.220795
166 -3.9652865 33.895309
167 -3.6841812 33.996914
168 -3.835043 34.231441
169 -3.9636371 34.334007
181 -3.1254299 33.618389
182 -3.380702 33.642471
183 -3.40047 34.088352
184 -3.8058453 33.80579
185 -3.7658439 34.296974
186 -3.6492517 33.958122
187 -3.8726254 34.118477
198 -3.0301781 33.33231
199 -3.1494677 33.610294
200 -3.3113253 33.735481
201 -3.3332973 34.04364
202.47058 -3.7387748 34.020512
204 -3.9637983 34.255341
205 -3.7039371 34.188652
206 -3.8242326 34.196163
217 -3.1332872 33.534092
218 -3.2488987 33.689297
219 -3.3395989 33.885696
220 -3.4867494 34.06081
221 -3.7629128 34.024281
222 -3.9204719 34.20829
223 -4.0069304 34.313404
225 -3.7939675 34.299713
234 -3.0740204 33.376419
235 -3.1194811 33.535046
236 -3.2188339 33.707062
237 -3.3280311 33.858749
238 -3.3781788 34.063869
239 -3.5869553 34.095219
240 -3.8004808 34.084217
241 -3.9653695 34.249599
253 -3.1051686 33.452747
254 -3.170428 33.657757
255 -3.4668012 33.94894
56 -2.045799 34.135586
68 -2.387593 34.2724
69 -2.5297871 34.319748
71 -2.1022761 34.164341
79 -2.1395061 34.270981
81 -2.3386109 34.249775
91 -2.5518229 34.215561
92 -2.167655 34.18198
93 -2.210376 34.069805
109 -2.6655841 34.20549
125 -2.2821951 33.437145
126 -2.563539 33.698322
127 -2.6239324 34.153835
128 -2.958425 34.317791
142 -2.0397689 33.401981
143 -2.2416825 33.575649
144 -2.5555344 33.703136
145 -2.8571446 33.992538
146 -2.8740597 34.270805
160 -2.2673445 33.385441
161 -2.4004464 33.541676
162 -2.679558 33.620022
163 -2.8798563 33.734795
164 -2.8889594 34.198395
179 -2.4117327 33.603966
180 -2.5899005 33.724091
181 -2.7159297 33.995514
182 -2.8741715 34.220142
183 -2.989146 34.336391
185 -2.6430581 34.324348
195 -2.159678 33.381393
196 -2.1659248 33.55637
197 -2.4062026 33.625988
198 -2.6845133 33.685268
199 -2.7840438 33.895607
200 -2.8546925 34.176487
201 -2.95875 34.282219
213 -2.1355212 33.461113
214 -2.3102372 33.579239
215 -2.4446516 33.686127
216 -2.6894615 33.722603
217 -2.7864847 33.90329
218 -2.8603516 34.100098
219 -2.9144773 34.249836
223 -2.1117451 34.216568
230 -2.0808191 33.366295
231 -2.1759486 33.49395
232 -2.3176999 33.578735
233 -2.4567838 33.68787
234 -2.6523833 33.766399
235 -2.7660234 33.937332
236 -2.8299086 34.101173
237 -2.9244637 34.217598
238 -2.9905424 34.312088
248 -2.1038306 33.420216
249 -2.2129521 33.522514
250 -2.365032 33.606556
251 -2.4817271 33.696865
252 -2.6859543 33.703133
253 -2.7695868 33.877762
254 -2.7765374 34.092758
255 -2.6310134 33.864628
55 -1.4736335 33.789413
57 -1.821177 34.049889
66 -1.212484 33.805176
71 -1.4875685 33.820908
73 -1.542433 33.924618
77 -1.615145 33.95026
79 -1.314286 33.823971
80 -1.668577 33.984306
84 -1.040659 33.715565
94 -1.961972 34.092911
95 -1.510533 33.725868
100 -1.624058 33.961735
107 -1.595939 33.765427
114 -1.0142829 33.852821
124 -1.169037 33.613953
125 -1.7980362 33.722523
126 -1.9237922 33.97057
136 -1.049266 33.781372
137 -1.5312419 33.873322
141 -1.3267587 33.469322
142 -1.6513073 33.549095
143 -1.7779915 33.773056
158 -1.126197 33.495052
159 -1.3923397 33.621288
160 -1.7805731 33.635002
176 -1.2672932 33.402626
177 -1.586014 33.535572
178 -1.7566969 33.757072
179 -1.897298 33.913284
192 -1.088186 33.341011
193 -1.2926389 33.418015
194 -1.5699979 33.461987
195 -1.7190802 33.58717
196 -1.8942341 33.770588
197 -1.9506583 33.892544
210 -1.1257488 33.40403
211 -1.3640571 33.459209
212 -1.6109264 33.535969
213 -1.816249 33.64349
214 -1.9093496 33.827801
215 -1.9430965 33.943771
220 -1.431518 33.961372
222 -1.87883 34.124084
227 -1.105346 33.399879
228 -1.2698994 33.465866
229 -1.5545559 33.492134
230 -1.7403681 33.56723
231 -1.8483224 33.692417
232 -1.9478742 33.828022
233 -1.980862 33.93383
240 -1.074644 33.671249
244 -1.116401 33.376514
245 -1.2166259 33.421741
246 -1.3959426 33.490795
247 -1.6395242 33.520893
248 -1.7644962 33.622536
249 -1.8458946 33.781834
250 -1.9482 33.89315
255 -1.5371264 33.621601
55 -0.77751601 34.209667
57 -0.62504148 33.625435
58 -0.67531252 33.826321
59 -0.49792349 33.646114
60 -0.70528698 34.215752
61 -0.097709 33.789799
62 -0.22781099 33.45203
63 -0.28559399 33.473965
64 -0.45528299 33.990368
67 -0.51922601 33.539848
68 -0.368965 33.446701
71 -0.68066603 33.581467
72 -0.69035447 33.575974
73 -0.992441 33.712109
74 -0.4520463 33.484131
75 -0.57326651 33.526939
76 -0.16845199 33.378567
79 -0.18520799 33.373375
82 -0.69291502 33.7253
83 -0.63438052 33.832554
95 -0.44635803 33.849976
98 -0.77345002 33.632587
105 -0.014855 33.706253
123 -0.73976076 33.411121
124 -0.27057526 33.656837
125 -0.41991416 33.868755
126 -0.58671981 34.139832
127 -0.33521199 33.911999
140 -0.68768102 33.421242
141 -0.89774197 33.472363
142 -0.20110101 33.806057
143 -0.50536001 33.889259
144 -0.460996 34.104832
157 -0.46646899 33.37772
158 -0.8700912 33.408585
159 -0.0075289998 33.691093
160 -0.341627 33.890236
162 -0.25505301 33.491806
192 -0.73274153 33.396606
193 -0.97542429 33.493137
208 -0.49733701 33.34024
209 -0.72979265 33.365311
210 -0.8875367 33.458508
226 -0.68661666 33.362831
227 -0.88805836 33.412132
228 -0.98928398 33.545406
243 -0.651254 33.349232
244 -0.88140231 33.415794
245 -0.9612627 33.499371
255 -0.78749633 33.431408
66 0.42644301 33.610966
71 0.127277 33.868973
74 0.093966998 33.790848
79 0.021701001 33.638752
90 0.076315001 33.558388
95 0.095562004 33.643505
106 0.50455201 33.562881
123 0.514557 33.523392
124 0.47554901 33.578941
141 0.25174233 33.599888
62 1.117467 33.447155
69 1.012117 33.542465
74 1.1195379 33.499641
98 1.127007 33.506462
123 1.0715394 33.492599
141 1.118687 33.485764
158 1.039433 33.492901
175 1.070448 33.450802
214 1.019706 33.52417
73 5.0380478 33.332108
55 5.0922198 33.435184
56 5.3731999 33.33659
59 5.5456691 33.53854
62 5.1696491 33.648617
63 5.2981019 33.893219
64 5.9525042 33.768867
65 5.7049899 33.398285
66 5.5077362 33.827038
67 6.0527749 33.982037
68 5.6396594 33.852364
