# .PCD v0.7 - Point Cloud Data file format
VERSION 0.7
FIELDS x y z
SIZE 4 4 4
TYPE F F F
COUNT 1 1 1
WIDTH 1615
HEIGHT 1
VIEWPOINT 0 0 0 1 0 0 0
POINTS 1615
DATA ascii
1.8897893 128.17647 -17.00592
6.9467797 127.83334 -17.300306
-5.9014072 131 -16.465191
-2.0363746 132.86667 -16.001417
2.5670621 132.92857 -16.162312
6.7281442 133 -17.535385
-5.8093276 138 -16.305792
-1.9465491 137.8 -15.860245
2.1360998 138.22223 -16.876329
6.2246671 138.39999 -16.986649
-6.2367549 141.66667 -16.102884
-2.077827 142.89999 -15.882439
3.0246613 142.64285 -15.965558
7.1251717 143.2 -18.336876
-6.3995948 147.8 -16.254772
-1.6683037 148.10001 -16.152704
3.0294683 147.90909 -16.27804
7.1276746 148.11111 -17.6903
-6.5244517 153.33333 -16.178205
-2.1449921 152.60001 -16.099218
3.2444901 152.8125 -16.520609
6.678762 153 -17.779665
-6.2942619 157.33333 -15.337068
-1.4646064 157.16667 -16.517876
2.7941995 158.46666 -16.352142
7.0186901 157.80769 -17.151878
-6.3086329 162.8 -16.335798
3.2521536 162.45454 -16.413897
6.8327827 162.75 -17.588411
-6.4258957 167.8 -17.291435
-3.2232597 169.28572 -15.659097
3.0358918 166.16667 -17.269224
6.8125916 168.27586 -18.095385
-6.1779666 172.25 -17.751207
-2.0773559 172.41667 -15.992181
0.64283586 174 -15.598039
7.124928 173 -17.701378
-6.3373408 177 -18.121155
-1.4898292 177 -17.045994
2.0204167 178.6842 -16.146395
7.1707172 178.29167 -17.808016
-6.8416095 185 -15.157243
-1.6070015 182.5 -16.12682
4.0037203 182.6875 -16.34819
7.49755 183.04477 -17.426981
-6.3005915 187.2 -15.509313
4.1312604 187.25 -17.227203
7.4763379 187.86905 -17.661289
-6.1346917 193.85715 -17.199007
-4.4194126 193.5 -16.746693
4.0409274 192.33333 -17.548103
7.3848815 192.98245 -18.453865
-6.0882115 196.75 -17.701588
7.4646168 197.63934 -18.970264
-3.5950379 204.48276 -15.157227
3.709533 202 -17.649977
7.4115553 202.32143 -19.363155
-5.4858279 208 -15.080691
-3.2260187 208.125 -15.685635
0.27249163 209.90909 -15.110261
7.8259034 207.95833 -15.833476
-2.2284396 212.7542 -16.187172
0.79720694 213.14102 -15.467954
7.5428391 213 -16.732216
-6.3569894 218.57143 -15.650088
-0.80598217 217.41803 -16.566967
1.818818 218.36403 -15.926236
6.8926325 218.3125 -17.005703
-5.4066949 223 -15.791643
-3.1564226 223.88889 -17.340134
2.9479806 222.98726 -16.276701
5.5700312 223.04347 -15.888631
-6.068666 228.13792 -15.283126
-2.7146499 227 -16.529835
3.8750288 228.06285 -16.735504
5.4734535 227.65306 -16.555441
-5.8954272 232.89583 -15.957551
4.1434493 232.25862 -17.274548
5.1972246 232.82143 -17.024799
-6.0077138 238.04256 -16.619963
-4.5389867 239.66667 -15.675384
4.8194566 236.16667 -17.660507
5.124001 236.60001 -17.61062
-6.1916118 243 -17.565197
-3.5496533 243.15625 -15.608091
-6.1533694 247.56522 -17.724615
-3.0404489 247.9697 -15.798001
0.32937843 249.8 -15.192871
-5.9973102 254.7037 -15.771283
-1.9417281 254.59091 -16.313581
2.3274424 254.78235 -16.59717
7.7041106 254.9749 -17.058128
-3.7417271 34.627895 -10.154376
0.47262138 34.706802 -10.111568
-11.408611 39.608135 -10.43106
-6.1780772 39.312359 -10.589838
-3.1508234 36.562679 -10.254788
-13.040114 40.95903 -10.555556
-8.3776407 42.380489 -10.716133
-4.5522308 41.472027 -10.533863
-15.345181 48.777943 -11.441432
-0.137319 55 -10.1514
3.7488265 55 -12.541352
8.725316 55 -12.347603
-10.955747 57.727272 -13.173477
-6.6164632 59 -12.428665
-1.2988065 58.103897 -12.102634
3.2162549 57.666668 -13.466945
8.7558613 57.42857 -12.842097
-11.350084 62.599998 -12.521187
-6.2006607 62 -12.103132
-1.4050176 62.971428 -12.466889
3.3632827 64.076187 -13.18247
8.1475906 62.400002 -12.787256
-10.511547 67.800003 -13.81999
-6.7973466 68.37838 -13.377316
-1.5076524 69.231888 -13.500745
3.5489492 66.937332 -12.683832
8.8159447 69 -11.682592
10.097541 70 -10.301017
-10.456223 72.952377 -13.437491
-8.2562742 73.185188 -13.506329
-1.8385537 73.026726 -13.374778
3.0497589 73.176468 -12.324577
-10.409348 77.777779 -13.22636
-7.2513418 77.973686 -13.446022
-1.9577838 78.06337 -12.317885
2.7283752 77.666664 -13.074848
8.3516836 78 -12.523782
-10.651464 85 -13.218448
-6.6756592 83.699997 -13.009459
-2.5648026 82.554306 -12.1842
2.9879644 83.235291 -13.024809
7.7612553 82.5 -11.77487
-6.8445134 88 -13.100365
-3.1989846 87.85714 -11.909983
3.1791914 88.333336 -12.508447
7.3318143 87.666664 -11.374244
-10.726102 93.5 -13.555135
-6.8916698 93.375 -12.478365
-2.9502616 92.988503 -12.436687
3.0326531 93.68 -12.626023
7.8286452 92.800003 -11.964097
-10.635051 99.75 -12.816534
-6.8896828 98.126984 -12.359775
-2.7778907 98.199997 -12.500174
3.3585856 98.25 -12.636119
7.7102394 99 -13.0482
-10.690317 104 -13.611144
-6.9760604 102.92982 -11.873228
-2.8926048 103.02469 -12.518692
3.3735809 103.18182 -12.653814
7.3086576 103.25 -11.279264
-10.623234 108.66666 -13.334489
-6.8967667 107.9697 -12.321413
-3.0452721 108.08889 -12.469587
2.8973765 107.925 -12.425462
7.3750463 108 -12.130528
-10.740633 112.25 -13.595993
-6.670186 113.18182 -12.004105
-3.2387478 113.27273 -12.528815
3.4295313 112.84 -13.036011
7.4306512 113.16666 -12.075351
-10.594601 117.375 -13.36034
-6.995204 117.88136 -12.176268
-2.8374443 117.82653 -12.461287
3.0143127 117.54546 -12.432785
6.9570961 117 -12.366055
-10.592511 122.3 -13.619589
-7.2163076 122.81081 -12.047879
-3.1105416 122.80952 -12.320364
2.3473916 122.96154 -12.670979
6.8259225 123.33334 -13.170923
-10.514552 127.91666 -12.618061
-7.1516838 127.72973 -12.635417
-2.4070637 128.18518 -12.494325
2.9463065 127.54546 -12.162017
7.140254 128.2 -13.512136
10.064596 128 -10.412239
-10.492214 132.16667 -13.863743
-7.4270859 132.53572 -13.657128
-1.8919798 132.5625 -12.531807
2.0692606 133.08696 -12.103542
7.5868244 132.25 -12.55606
-10.294547 138.66667 -12.437972
-7.0865693 137.92857 -12.141191
-2.4982426 137.73914 -12.623597
2.263454 137.73334 -12.072953
6.5852966 137.58333 -12.646937
-7.614975 143.11111 -12.729107
-1.2766623 143.04546 -13.321433
3.396281 142.79488 -12.693659
7.22436 143.375 -13.494241
-10.438857 149.2 -14.325986
-7.4512329 148.45454 -13.833298
-2.0051882 147.88889 -13.107429
3.5262558 147.84848 -13.261808
7.688458 148.27777 -12.734738
-6.2369671 153 -14.039086
-2.2089503 152.85715 -11.94498
3.0686953 152.5 -13.132815
7.9369812 152.65218 -12.951318
-5.9111729 158 -14.196201
-2.5243568 157.5 -12.765129
2.9724998 157.70589 -12.426074
8.2797632 158.11111 -12.710747
-10.376868 164.63637 -11.006964
-8.2845268 164.54903 -11.43874
-3.2114832 163.44444 -13.719196
1.8366641 163.14285 -12.648331
7.6499557 163.08109 -12.33181
10.037886 161 -10.546467
-10.457411 168.22728 -11.705512
-7.7359023 168.01639 -11.433633
-3.5450792 166.66667 -14.289536
1.6222601 167.82353 -13.900003
7.4141235 167.78378 -12.3996
-10.602784 173.73077 -13.104949
-7.3890862 173.17442 -12.698668
3.7088397 172.09091 -14.108941
7.1159091 172.74193 -13.318722
-10.630113 178.77632 -14.086813
-7.5945754 178.26259 -13.766524
-2.632678 179.01819 -10.3859
4.7994223 177.5 -14.930868
7.0639858 177.53847 -14.234288
-10.631017 181.83333 -14.691981
-7.7813139 182.76677 -14.635918
-1.8560916 183.36301 -10.871736
0.89102006 184.24615 -10.290145
8.4352446 182.625 -13.046292
-6.280798 186 -14.985763
-2.5010111 187.79453 -11.940817
1.5987452 188.46111 -10.850301
8.841609 188.33333 -10.981253
-10.365598 193.15625 -11.263775
-7.9454293 193.61191 -11.256989
-2.910934 193.18542 -13.014318
2.2424605 192.8241 -11.401857
6.3693414 193.73787 -10.80935
-10.44991 197.54167 -11.762221
-7.739677 197.93178 -11.597614
-2.9988277 198.15765 -13.69598
2.1843066 198.07642 -12.378963
6.3423624 197.89375 -11.481733
-10.635136 203.77272 -13.160775
-7.1306138 203.14627 -12.685241
-2.7990112 202.64516 -14.018915
2.0982075 202.94612 -13.257335
6.1273193 202.9375 -12.377228
-10.799722 208 -13.796274
-7.2757339 207.75247 -13.339935
-2.0835748 208.40517 -11.864535
2.336354 207.80255 -14.022634
5.6475649 207.71739 -12.865755
-10.613969 212.53247 -14.452079
-7.764966 212.67412 -14.097605
-2.1543584 213.36716 -10.695806
3.7656155 212.96478 -14.028571
5.4874587 212.93478 -13.75332
-10.332514 219.08064 -11.161036
-7.9385548 218.75337 -12.20406
-2.4818273 217.76244 -11.427643
2.0520923 217.89371 -11.652343
5.4168043 217.7 -14.559209
-10.438107 223.11409 -10.879157
-7.6723447 223.03926 -11.270988
-2.9810894 223.07913 -12.37005
1.9581475 223.27132 -10.880656
7.4431686 224.11111 -11.183117
-10.521919 227.03334 -10.722013
-7.5451059 227.31174 -11.091063
-2.9809382 227.94916 -13.065306
2.1950161 227.66029 -11.457587
7.6694951 228.46341 -10.401287
-10.390841 234.59091 -13.226742
-7.8485198 233.6375 -12.957811
-3.1557577 232.93903 -13.636068
1.6181746 232.94215 -12.452413
8.0094433 232.9875 -11.017437
10.064103 232.2 -10.205297
-10.486886 236.66667 -13.394067
-7.9174547 237.18823 -13.312234
-3.1692319 238.16037 -12.770393
2.1357026 237.92784 -12.929424
8.1025476 237.98634 -11.851601
-10.450153 242.47058 -14.056935
-7.7861552 242.91891 -13.34318
-2.7355895 243 -11.34479
1.9202062 242.5614 -13.680013
8.1849556 243.02643 -12.79062
-10.424172 247.87805 -10.900456
-7.59515 248.33208 -11.159421
-1.8623686 247.35715 -11.302719
1.7140229 248.47223 -12.809933
8.1293297 248.02263 -13.632597
-10.458388 254.02856 -11.145495
-7.1616702 254.09596 -11.681688
-2.4911883 254.57777 -12.356037
2.5496175 254.29936 -11.630171
8.0222435 253.71976 -13.461423
-5.1089849 14.756097 -5.065856
-2.6189127 14.734192 -5.0932131
2.3264689 14.871163 -5.0467558
5.3461099 14.999807 -5.07476
-5.799788 17.736593 -5.8516331
-2.3737254 16.930611 -5.56742
2.6812847 17.489307 -5.6796689
5.8574944 18.520945 -5.8513236
-6.4589219 22.886967 -7.0308967
-2.7899587 22.251457 -6.8672233
3.0229557 22.01442 -6.7928853
5.8968129 20.677446 -6.1486158
-8.1297407 27.711506 -7.9269133
-3.1173201 26.479666 -7.8606596
2.4102314 28.018108 -8.4418554
9.061821 29.422546 -7.076952
10.043573 29.220867 -5.6829462
-6.4402099 32.067471 -9.0114861
-2.491926 33.850689 -9.6501207
3.0001681 33.623478 -7.6417294
6.698771 31.23012 -6.929945
-11.282182 39.788605 -8.9612646
-5.2345223 38.902431 -9.9765539
-1.6375452 37.043018 -7.5956306
0.76201302 35.574066 -6.7127738
-15.082826 42.8186 -7.1760592
-12.287252 41.202545 -7.5807447
-7.8550696 43.240746 -7.9847059
-4.2271428 42.24057 -7.4922481
0.44074038 44.019222 -5.0953951
-15.978503 49.62027 -5.4329877
-12.533196 48.832005 -5.6155725
-8.3472815 45.911777 -5.8952112
-16.838634 51.508793 -6.1868448
-14.201594 50.404572 -6.1700773
-6.8648329 55 -6.6741676
-4.4151297 55 -6.39991
4.2883968 55 -7.2914953
5.8037891 55 -6.4417229
-18.99963 55.669655 -7.404109
-10.731261 58.142857 -6.718945
-6.8041167 57.924244 -7.0195332
-3.315315 57.28125 -6.7737775
3.8041859 57.574802 -7.6959882
6.451757 57.888889 -7.0776281
10.680107 57.57143 -7.0492797
-10.950138 63 -7.2009144
-6.4386139 62.899281 -7.1362457
-2.4113712 62.59375 -6.9323506
4.1671538 63.787235 -7.9003062
5.6131072 63 -5.9694924
10.549742 63.5 -7.6673679
-10.963888 67.875 -7.5887303
-6.9308887 68.397324 -6.2986064
-2.4272201 68.285713 -7.1805263
4.3108435 67.801804 -7.3969488
5.1996665 68.91597 -6.1374974
10.63561 67.666664 -7.3192182
-10.725807 73.480003 -7.4534845
-7.0500922 72.710953 -6.168695
-2.2291272 73.852074 -7.3403983
2.3234739 73.319672 -6.8085861
5.4023156 72 -6.1195149
-10.769173 78.016258 -7.5425067
-7.2658429 77.643837 -6.528532
-1.4252808 78.359154 -7.228385
0.70597672 78.187782 -6.8377013
5.8742971 77 -6.5200539
10.449636 78 -8.3617907
-10.8991 81.969231 -7.4621491
-6.6548748 83.459457 -6.5714703
-1.7456563 82.696968 -7.3530483
1.0040796 82.435028 -7.275939
6.9065909 82.85714 -7.0012197
10.712325 84 -6.8847346
-10.843398 88.117645 -7.0146565
-6.2673578 87.941177 -6.3817983
-2.814779 87.620918 -7.4918246
2.6817718 87.60656 -7.5349803
6.291235 88 -6.81106
10.681102 88 -6.5741601
-10.735003 93.285713 -7.2701392
-6.3080254 92.815788 -6.4846268
-3.2082474 92.907898 -7.3159862
2.9794583 92.71154 -7.537612
6.6965742 92.800003 -7.1517181
-10.672821 97.875 -7.4070573
-6.841403 98.142258 -6.4795446
-3.0518773 98.113922 -7.2134738
2.3282938 97.78788 -7.1733012
6.1432672 98.058823 -6.4429173
10.372823 97 -8.7558813
-10.592575 103.1 -7.0979781
-6.9971194 102.90453 -6.6087375
-2.9126642 102.625 -7.309545
2.7626383 103.17461 -7.4815273
6.730782 102.75 -6.7651443
-10.558189 107.92 -7.4626923
-7.0475073 108.17098 -7.118866
-2.9936585 108.0125 -7.3794417
2.7601693 108.22916 -7.0023866
6.13801 107.61539 -6.3681631
10.498014 109 -8.084075
-10.589112 113.05556 -7.0130134
-7.6656585 112.78883 -8.4318247
-3.0341542 113.1 -7.6710677
2.4681618 113.15686 -6.9267468
6.2097745 113.5 -6.3395963
10.864553 114.5 -5.7679567
-10.45442 117.78571 -7.1659966
-7.7662315 117.66576 -7.6605644
-2.925323 117.66666 -7.3596916
2.3282022 117.8868 -7.122407
6.8970714 117.83334 -6.9488201
10.76276 116 -6.100698
-10.378479 123.14286 -7.2298765
-7.2807117 122.86316 -7.2904849
-2.8042965 123 -7.5175977
2.1819818 122.52084 -7.1578107
6.8099675 123.14286 -7.4874005
-10.394803 128.11111 -6.6581755
-7.7177062 128.1991 -7.8023758
-2.8232801 128.05 -8.3304634
1.7890278 128 -8.3962069
7.2053132 128.625 -6.4224982
-10.659148 132.76923 -7.451961
-8.2638674 132.68867 -6.6495028
-2.7202406 132.72414 -7.9975004
1.979473 132.80769 -8.1735325
7.3864045 132.60001 -7.3740511
10.545057 131 -7.3553038
-10.157736 136.5 -8.1142788
-7.3383765 137.80412 -7.2028275
-3.0146472 138.16667 -7.4246974
2.9347918 137.76471 -7.4859433
7.8003731 137.39999 -7.5174599
10.159265 138 -9.4364634
-10.288593 144 -5.5697951
-7.4989972 142.94806 -7.3339472
-3.3331542 143.5 -8.9739456
2.1511192 142.60001 -7.338099
6.9388824 142.7 -7.6172705
10.444542 143 -7.7074122
-10.628185 148 -7.5725303
-7.496377 147.94737 -7.046597
-2.7650981 148 -7.3394113
2.4523599 147.42857 -8.4020443
7.4944086 148.375 -7.5983834
10.434744 146 -7.9473228
-10.321938 154 -6.0609131
-7.5767879 152.7037 -7.0361485
-3.0873897 154.66667 -5.9471841
4.1185851 153.66667 -9.3525457
7.8401895 153.28572 -7.9359088
10.543941 152.39999 -6.7658792
-10.494956 157.875 -5.7040939
-7.3018751 158.09375 -6.1489043
-2.1771982 158.18182 -5.7204018
3.0280309 158.5 -7.517487
8.611783 158 -9.0866928
10.505601 157.33333 -7.3646264
-10.703032 161 -6.5710702
-7.3491187 163.14999 -6.1343045
-1.9218709 163.16394 -6.6494517
1.3596288 162.97437 -5.4947367
8.3787708 162.2 -8.6076479
10.183785 163 -8.8565149
-10.873952 167.72728 -8.020813
-7.4034605 167.60001 -6.9434566
-1.9739323 167.89333 -7.5258222
1.7048599 168.11429 -6.5202446
6.3473682 169.41176 -5.3925624
10.486876 169.5 -5.540565
-10.77167 172.73529 -9.0677776
-8.0601254 173.25 -7.5593557
-2.1536319 173.12195 -8.8348494
2.0140858 173.06061 -7.4698238
6.267714 173.04762 -5.932116
-10.547599 178.3421 -7.4989295
-8.0284729 178.02689 -7.7875433
-2.0299001 177.67059 -8.8864326
1.958475 178.37325 -8.661376
6.2352748 177.97247 -7.0757909
10.543462 177.5 -7.4573565
-10.609945 182.66667 -7.5794487
-7.6891098 183.08095 -7.5033083
-2.6752901 183.38571 -5.9484696
2.6948483 182.92143 -9.2961216
6.0856967 182.69231 -8.1197214
10.180294 183 -8.9652891
-10.518431 186.8 -6.353857
-6.6468868 188.19354 -7.8170815
-2.7958026 188.36208 -6.9536448
3.4935551 188.12878 -7.9278712
5.9626184 187.93805 -9.0231018
-10.914792 193.60001 -7.6070609
-7.9274297 193.01613 -7.2079992
-2.314162 193.13492 -7.5569835
2.2096338 193.06429 -6.0959587
6.0709043 192.07843 -9.7475271
-10.922614 198.82051 -9.0346546
-7.9921703 198.36 -8.8232613
-2.4873638 198.12727 -8.44911
2.0261045 197.94765 -6.8295302
5.9913917 199.44118 -5.2884355
-10.809607 203.1519 -9.0893965
-8.0583591 203.20462 -8.2167253
-2.3896072 203.11627 -9.0905886
1.9024811 203.06383 -7.7344413
7.4438486 203.40637 -5.6241269
10.177013 205 -5.0762253
-10.596902 208.13637 -7.6344209
-8.1062126 208.10707 -8.0207176
-1.9577608 208.16757 -7.3627877
1.8045306 207.93774 -8.6000271
7.5916157 208.03291 -6.4830084
10.497687 208.21176 -5.5489583
-10.732862 213.09558 -7.5739551
-8.1561174 213.004 -7.9610462
-2.2358279 213.01195 -6.3243685
1.6287632 213.02953 -8.79949
7.4971771 212.96649 -7.4604926
10.438436 212.98718 -6.5043011
-10.726746 217.17284 -7.3750777
-8.1333408 217.12238 -7.8490295
-2.4132724 217.92766 -6.9637527
2.5481484 218.07471 -6.9500804
7.5505614 218.05276 -8.3711281
10.316694 217.7541 -7.5008955
-10.909153 223.13889 -7.8297229
-7.2117953 222.59822 -7.8221941
-2.6489882 223.00905 -7.7571707
2.6046603 222.82867 -6.6449046
7.7559896 223.05 -9.227066
10.225256 222.825 -8.4768229
-10.722744 228.75258 -9.1579914
-8.5327854 229.08589 -9.2507629
-2.8931224 227.95676 -8.5443487
2.0511386 228.01025 -7.036325
7.397203 227.64035 -8.2521849
10.125709 227.68182 -9.4087906
-10.643019 232.77127 -8.5671721
-8.030405 232.97934 -8.1682339
-2.5412893 232.97107 -7.8162127
2.0463104 233.08824 -7.7447085
6.4155297 233.06587 -5.7606835
10.122259 231 -9.9570827
-10.574552 237.97745 -8.3921766
-8.0897074 237.90375 -7.921454
-2.2648277 238.03423 -7.5226169
1.8561398 238.02702 -8.3575935
6.8234921 238.09352 -6.2662506
-10.638247 242.93805 -8.1235733
-8.1878462 242.95914 -7.8508778
-2.3742867 242.771 -7.0409193
1.5240034 242.95312 -8.1926746
7.6749797 242.95555 -6.5237489
10.304182 243.96297 -5.2209196
-10.823053 247.60464 -7.9224343
-8.3833494 247.83601 -7.7899427
-2.9498215 247.85715 -7.026135
2.2795095 248.09901 -7.4904408
7.9195132 247.80272 -7.115334
10.437978 247.95454 -5.7604632
-10.651206 254.91156 -8.2645693
-7.4369984 254.7971 -8.0648365
-3.5320168 254.41327 -7.7972355
2.7926381 253.67516 -8.0276079
8.2547798 254.36339 -7.8453398
10.330357 253.86076 -7.0262337
-5.1335459 14.080216 -4.8837705
-2.6024473 14.149642 -4.7959204
2.1631269 13.27585 -4.5466299
5.1283941 14.467763 -4.9271407
-2.801348 15.188584 -4.8605046
1.1461799 15.171462 -4.9890008
9.72892 29.85813 -4.3070354
10.081657 29.792696 -3.6853256
3.7871106 34.087654 -4.3629141
7.5974364 31.51556 -3.933768
10.117085 30.606215 -2.4726238
-5.1541405 40.002892 -2.1195724
-2.1691802 38.401936 -1.6547104
2.4984109 38.161297 -2.3593998
7.3466129 37.682079 -1.6957551
11.137032 38.69352 -1.9681289
-11.125472 44.302139 -2.4011772
-7.3687191 42.474407 -2.0758522
-2.4728568 41.553616 -3.4244378
0.7012139 40.513584 -3.0964732
9.3566265 40.542435 -3.1220374
13.385343 41.572334 -1.6498886
-15.933415 47.888947 -2.3489826
-13.136346 46.499332 -2.4430168
-8.4413042 45.883301 -4.4738121
-4.3103061 45.489311 -4.6183562
-17.97753 53.827003 -2.2165847
-11.688846 52.129997 -1.9155487
-6.6902924 55 -2.7590194
-4.5708227 55 -3.2801359
3.9526045 55 -2.3950775
5.5230913 55 -2.2352276
11.840021 55 -0.60271096
-18.600935 55.392986 -2.668642
-10.354025 58.466667 -3.0600324
-6.8483891 57.926174 -2.7308712
-4.4000454 57.720364 -3.4783356
4.0171361 57.76923 -2.986551
5.5134869 57.050632 -2.3105221
11.397344 57.25 -2.8474398
-10.370143 62.84 -3.5348291
-6.769588 63.017315 -2.6392698
-4.3268266 62.68644 -3.3935788
3.9482219 63.40625 -3.1500638
5.6976924 63.57143 -2.4579592
11.133423 63.5 -4.3017464
-10.373956 67.666664 -3.06124
-7.1895456 68.181816 -2.862757
-4.5882668 68.46875 -2.9217768
4.4728346 68.508698 -3.7097516
5.5786805 68.824646 -2.0173552
-10.364932 73.5 -2.9726419
-6.4263711 73.219353 -3.3880436
-3.0583353 73.412666 -2.2629251
1.1712135 73.818184 -2.2491629
5.7924032 72.184357 -1.7019583
11.606437 72 -1.492641
-10.118937 78.75 -3.8521819
-5.8592792 78.205452 -2.5486841
-2.6045849 77.975159 -2.529367
0.9564395 78.023254 -2.0424988
5.6452703 78.218185 -2.0078051
11.72656 76.666664 -1.1067053
-10.346893 82.900002 -2.9933016
-5.6795731 83.087761 -2.2813563
-3.2215774 82.748215 -2.4912081
1.4687408 82.26786 -1.8933095
5.2945971 82.577316 -1.1253368
-10.481065 88.583336 -4.1400456
-5.862987 87.88559 -2.2915525
-3.7768028 87.595451 -2.1843362
2.4537041 88.090912 -2.1685548
5.4003835 87.709679 -1.0617933
11.208402 86 -3.5997989
-10.446136 93.375 -4.1680503
-5.9831257 92.905334 -2.3252277
-3.5565979 92.834587 -2.2515059
2.3450058 93.509804 -1.6551809
6.1142597 93.045456 -1.0850781
-10.40165 98.454544 -4.0428338
-6.1193914 97.876175 -2.4568205
-3.1959414 97.833336 -2.5081069
2.0046754 97.915489 -1.969203
5.9231343 98.521736 -1.6022965
-10.214927 102.72727 -3.9533517
-6.6533494 102.66666 -2.6103144
-3.0669289 102.65766 -2.7499144
2.1589322 103.01205 -1.8098211
6.0758886 103.6 -1.0137309
-10.218796 107.42857 -3.8313389
-6.8335934 107.94318 -2.7537374
-3.3481281 108.18279 -2.7974114
1.6051662 108.36487 -1.5890197
5.7720137 107.93939 -2.2911651
11.453642 106 -2.300771
-10.403543 112.83334 -3.4544828
-7.1700687 112.72689 -2.6093996
-3.3018324 112.87629 -3.0269129
1.8952029 113.02817 -2.4602494
6.0936556 112.65714 -1.9483721
-10.4043 117.17647 -3.5312405
-6.9110923 117.94968 -2.7344742
-3.3652549 117.97561 -2.8263068
1.824674 117.9697 -3.7297275
6.2870274 117.90385 -2.2127144
11.120703 116 -4.5970402
-10.402605 123.4 -3.7346587
-7.3019099 122.92481 -3.0204334
-3.6906497 123.21053 -2.8924515
1.6284349 122.82143 -2.6350272
6.8517852 123 -3.033493
10.96755 125 -4.9675202
-10.19075 129 -4.7560492
-7.3345828 127.94505 -2.7123072
-3.8883092 127.75 -3.5066872
2.8226392 127.7 -2.5346451
6.1861482 127.78261 -3.0906451
-10.075492 134.5 -2.965487
-8.7989569 133.32204 -2.7523131
-3.7967896 131.28572 -2.1325426
1.8910047 133.63637 -3.8967597
7.747808 132.66667 -2.4713678
10.941376 132.66667 -2.1756608
-10.173192 138.26262 -2.9424124
-8.4646883 138.44206 -1.8141838
-2.0157237 139.19048 -0.69993865
0.92880201 139.5 -1.4024467
8.2990198 138 -2.4526203
11.327857 137.60001 -1.9752041
-10.303477 141.84616 -3.389925
-8.2751598 143.31963 -1.7767545
-2.0566225 142.76515 -1.2649139
1.3117124 144.21111 -0.41521606
8.6882839 142.16667 -3.6399367
11.155263 142.83333 -2.2449496
-10.109192 147.44444 -3.2897043
-8.3470402 147.34042 -2.8590994
-2.172755 147.82443 -2.58834
1.7619376 147.92523 -1.3736436
8.760417 147 -4.426991
11.283849 146 -3.2327976
-10.231796 153.125 -4.3945708
-8.7361231 152.61627 -2.7456827
-2.2287893 152.93976 -3.7904716
1.9938718 152.91667 -2.6637225
6.1355639 153.51137 -0.62258321
10.74809 155 -1.017188
-10.199965 159.23529 -1.2684335
-7.7252455 158.25352 -2.1622691
-3.4499238 157.9899 -1.4246725
2.4032683 158.24812 -3.7939126
6.3704448 158.02649 -1.7932949
11.139915 156 -1.091701
-10.296411 162.3158 -2.4163749
-8.0508184 163.20312 -2.1064157
-3.3985362 163.34065 -1.5368669
2.9476411 161.90909 -4.248178
6.316855 162.69768 -3.3322883
10.979685 163 -3.3553801
-10.313049 169 -3.8606422
-8.1405315 167.61194 -2.3897152
-3.456326 167.92308 -2.5587506
3.0372214 167.85965 -1.8750606
6.1024375 167.72368 -4.3786101
11.060986 168 -4.7677841
-10.176007 172.52632 -3.7339048
-7.7399855 172.43549 -3.6520205
-2.4621804 173.07594 -3.5426345
1.7980595 173.28235 -1.9561377
7.210875 171.33333 -4.8364239
-10.267603 178.46153 -3.1214557
-8.2220993 178.38983 -2.7022438
-1.7457999 177.91304 -3.5687118
2.0144374 178.08871 -2.8677988
6.5744982 178.44827 -0.53685397
-10.19407 183.53847 -1.7286756
-7.5922875 182.86171 -1.4857388
-2.6637895 182.83186 -0.70810801
3.1913328 183.11476 -3.4478569
6.9849033 183.40475 -1.536576
10.370328 184.25 -0.304416
-10.228869 187 -3.5078456
-8.1980124 188.71962 -1.8033415
-2.0130236 187.9406 -1.6478329
3.3252938 187.70213 -3.389277
7.3329678 188.26973 -2.4322567
10.922661 188.08333 -0.77930295
-10.078771 193.55556 -3.0069628
-7.6590261 193.01361 -2.6970668
-1.6176324 193.25714 -2.6167557
2.9987848 193.15469 -1.0202919
8.0088844 193.05046 -3.2634578
10.847484 192.93814 -1.9914536
-10.320601 198.61539 -4.1451755
-7.4825816 198.1369 -3.2743475
-1.7952596 198.21538 -3.4453905
2.2918105 198.06116 -2.0914614
8.0435658 198.09131 -4.248466
10.765506 198.20689 -3.2489147
-10.315712 202.88095 -3.6104839
-7.5393748 203.2 -0.96901405
-1.5723716 203.10818 -2.748136
2.2826114 203.01631 -2.9064646
7.6588111 202.87047 -1.932999
10.642378 202.8427 -4.3205724
-10.146469 207.78947 -2.6883819
-7.3059874 208.17583 -1.4630959
-2.3266566 207.92195 -1.3674818
2.9567063 208.08238 -3.3289545
7.0763102 208.10443 -1.2994146
10.87925 206.3 -4.8532634
-10.160671 211.25 -3.2151649
-7.5461187 212.89684 -2.1770222
-2.2812927 212.94531 -1.8214474
2.9048085 213.03107 -2.6752346
7.0335298 213.05672 -2.1633713
10.114121 215 -0.097861998
-10.116377 220 -0.051001251
-7.2286601 217.91304 -2.7836022
-1.6371626 218.08844 -2.7738035
2.9925516 217.89519 -1.6311411
7.377831 217.88579 -2.7032559
10.622223 218.66336 -0.43547726
-10.23284 222.77966 -2.9444757
-7.7251573 223.23976 -1.3193791
-1.6298866 223.37732 -2.1756637
2.6844866 222.94843 -2.0954847
7.5286722 223.1662 -3.2791014
10.936532 223.03572 -1.0519741
-10.340814 227.96774 -4.17313
-7.3499002 227.86075 -2.3897004
-1.8885505 227.88319 -2.4123385
2.4139915 227.98842 -2.9540181
7.629817 227.95349 -2.5127161
10.82481 227.90384 -2.0760379
-10.132245 231.88889 -3.1621828
-7.3574886 233.09514 -1.9725853
-2.8423569 233.073 -1.744064
2.9761612 232.95122 -2.560493
8.0894384 232.86246 -2.2357106
10.750632 232.8255 -3.0115981
-7.349216 237.85301 -2.4496274
-2.9453237 237.93842 -1.6315255
2.9616842 238.05138 -2.5851603
7.767035 237.73059 -2.7851889
10.659786 238.05608 -3.9817393
-10.247959 242.72728 -2.3644898
-7.5468059 242.73392 -1.6595972
-2.236985 243.05202 -1.9308697
2.8012419 242.68243 -2.3761618
7.1202025 242.94231 -2.6898458
10.652309 242.34 -4.7106528
-10.235798 247.96153 -4.0107269
-7.1735606 247.86432 -1.2940847
-2.2836733 247.7347 -2.0761261
2.4831152 247.7541 -2.259661
7.862463 247.88618 -2.1879826
10.382657 249.14706 -0.22527556
-10.2828 254.35294 -4.2416387
-7.6595321 254.03004 -2.9262388
-3.1649616 254.32869 -2.0078647
2.6906626 254.26666 -2.7651465
8.3220015 254.18375 -2.4743781
10.84173 254.45937 -1.617501
-0.192121 11.95362 3.334368
-1.6314719 38.972214 2.0222025
2.7832122 39.158756 2.0648079
7.557869 38.711395 2.3825171
10.686794 38.618008 2.2894046
-10.496786 44.768108 1.0542597
-7.3764157 42.98177 1.9332236
-3.8448052 40.969772 2.7321384
2.1179903 41.058456 2.9939172
7.9602413 40.598129 3.5636795
13.135152 42.222534 2.5266798
15.105059 44.92168 1.997425
-16.065638 49.157177 2.3379557
-12.57926 46.98307 2.6403878
-7.7779055 47.03001 4.3337712
-3.9062078 45.971989 4.6924758
4.024374 45.3908 4.547276
14.914118 45.294621 4.3650112
15.370983 45.844719 3.8729773
-16.681173 51.722736 3.2061906
-13.416274 51.629204 3.1245611
-7.3589535 54.32579 2.665513
-3.9085207 55 1.287353
1.5892942 55 1.0185106
5.6485848 55 1.4791746
12.481277 55 2.9110348
-17.792831 55.604 2.0294924
-10.099087 59 0.84091353
-7.1338854 57.611595 2.3377898
-4.1143303 57.575241 1.826178
1.7894424 56.609489 1.2847221
5.7443914 57.260868 1.5391877
12.462365 56.733334 2.7923167
-10.166457 64 0.721717
-7.0290203 63.304001 2.455472
-3.4547291 63.158192 1.660934
1.701643 63.765957 1.4906483
5.8484163 63.641026 1.4160795
12.53441 64.75 3.2052183
-10.404807 68 0.20860501
-7.175889 67.790962 2.3315818
-4.1247754 68.160858 2.4897213
1.8967484 67.8255 1.4568379
5.6806421 67.922279 1.618355
12.091188 67.25 0.74062049
-10.074169 75 0.41974002
-6.1967378 72.972847 2.3653932
-4.2707009 73.086418 2.6120918
3.9809115 73.183266 2.6377778
5.3342628 73.262138 2.5488465
12.467071 73 2.9385543
-5.7730641 78.40274 2.4662528
-4.3768826 77.849396 2.4021466
3.249836 77.628052 2.5061452
5.4055839 77.429626 2.9003375
12.541636 78 3.2021191
-10.230911 81 0.319215
-5.7881961 83.228279 2.5348878
-4.4648857 82.803612 2.237956
2.6204438 83.118279 2.6743331
5.6426997 83.36364 3.3997378
12.27282 83.666664 1.746524
-5.7792282 87.924446 2.335906
-4.3335619 87.759262 2.0742619
2.2417052 87.762711 1.8847737
5.6079106 87.778946 2.6567793
12.646204 87 3.8772001
-10.104073 94.800003 0.62041438
-5.9250307 92.868057 2.5880799
-4.3356261 92.610619 1.6899306
1.3846641 93.129631 1.5752622
5.5621567 92.784615 1.8744673
12.144151 94 1.304183
-10.228501 96 0.189255
-5.9617176 97.920456 2.6841121
-3.8325529 97.75676 1.8445554
1.438164 97.878052 1.6007252
5.6077294 97.914894 2.5081236
12.33075 97 2.0764441
-10.167133 102.5 0.58344996
-6.226532 102.6383 2.8049498
-3.308104 102.86667 1.5736995
1.6595179 103 1.5122957
5.7125325 102.25 2.4749877
-10.173808 106 0.57803601
-6.3477917 107.87594 2.8126657
-2.6689653 108.47727 1.6826378
1.5414783 108.03125 2.0759935
5.8511977 108.43243 2.0676074
10.335011 106 3.4878111
-10.159326 115 0.85411602
-6.5923629 112.875 2.8555048
-3.0284686 112.82609 1.8419828
1.7549806 113.44118 2.6619806
6.3289814 112.64516 2.6485739
-6.9040742 117.7477 3.0430074
-3.1513724 117.84615 1.4991469
1.9493368 116.8421 3.1991291
7.2008781 118 2.6253853
11.930178 117.5 2.6355469
-7.0552907 122.76355 3.1587412
-2.707155 123.29166 2.5077062
3.1119928 122.8 2.8116374
8.0261469 122.81481 2.5800765
11.358469 121 3.4936719
-7.1331105 127.89904 3.3454294
-3.3797905 128.2 3.2388313
1.8570108 127.6 2.9970496
8.381959 128.375 1.4363347
11.435001 128.5 3.3606486
-10.145033 134.5 0.8051905
-7.4644165 132.56656 2.3808403
-4.0247526 132.60464 2.3107717
3.3803592 133.25 1.7417407
7.4066358 133.46666 2.2448676
12.263884 133 2.6524768
-7.4899111 137.39706 2.2534604
-2.7922056 138.7451 0.77533251
0.027104 139 0.060063999
8.0977478 138.5 2.9593217
10.695275 139 3.678875
-7.4779882 143.39008 3.7576852
-2.4398506 143.85463 2.9177871
2.0298717 144.43243 0.34491044
9.2700129 143.42857 1.9274257
11.988579 143 4.3802238
-7.1971068 147.7874 3.2185676
-2.3456025 147.6579 2.6058977
1.7950211 148.53398 2.3722048
9.9304276 147 1.2372425
11.343101 147.66667 1.9543153
-10.067782 153.75 1.0245957
-7.5331531 152.2439 2.3406456
-2.5894761 152.69672 1.7880778
1.9409865 152.61905 2.4590428
6.5761099 153.69672 0.98584712
-7.5354137 158.21538 2.3532534
-3.0866127 157.11043 0.69722956
3.3411734 157.56775 2.1119437
6.5207014 158.26599 1.9490685
-7.3939342 162.78703 3.8966308
-1.5644537 163.01025 1.3658012
4.2882581 162.22223 1.8334939
6.6985841 162.66946 2.4241807
-7.609354 168.97253 2.7693646
-2.1048837 168.13583 2.4461396
2.8070757 168.49484 0.60906118
8.6702938 167.67188 2.9473388
10.592466 168.6129 4.3588614
-10.123845 175 0.76762998
-7.612628 172.16043 2.1755552
-1.8259848 172.91451 1.8867769
2.4755232 173.26315 1.672601
8.9786596 173.11594 1.784095
11.434242 173.37878 3.6401162
-10.131584 176 0.55452752
-7.4521079 178.12308 2.5795655
-2.2460763 178.5125 1.4654356
2.5928895 177.90067 1.8716192
7.3281388 178.37306 0.62093747
11.428485 178.1039 2.2386093
-7.4664259 182.60759 3.4500022
-2.1339712 182.92857 1.0084788
3.0743802 182.47748 2.002614
7.0060635 183.04109 1.3694466
11.508184 182.90541 0.99608827
-7.8094568 188.88991 2.3852553
-1.8638439 188.15686 2.0455918
3.3653839 188.22549 1.2064637
6.7117462 187.98795 2.1738982
11.802499 186.39999 0.29772714
-10.06866 194.33333 0.96842664
-7.6611376 192.98291 2.0858212
-2.4710557 192.84332 2.5842795
2.7780271 192.99243 1.0144552
7.6654396 192.53049 2.7313144
10.370516 194.8 4.761364
-10.054707 197.33333 0.34114704
-7.3469944 198.14095 2.4020383
-3.031862 198.17778 2.1779752
2.078342 198.16 2.9749699
8.7984695 198.37038 2.5029132
10.904161 198.39682 4.3278985
-7.1982965 202.73271 3.0153441
-3.4573977 202.87363 2.3162601
2.3766909 202.9738 2.9388294
8.4771395 203.22835 1.4988393
11.406366 203.15384 3.6026213
-7.4442577 208.56049 2.1777825
-3.5468569 208.08064 2.8893244
2.7977684 207.56613 2.2467711
7.8943691 208.13072 2.166461
11.40894 207.92964 2.4808273
-10.056097 214.33333 0.92558265
-7.5008731 213.28856 2.6726468
-2.9305584 213.3421 3.3764572
3.3682485 213.13812 2.3834982
7.2942786 213.25 3.6036866
11.251521 212.95979 1.2236475
-10.098847 218.16667 0.28472516
-7.3951049 218.03648 2.1816931
-3.2141223 218.04599 3.1144342
1.9708655 218.22388 4.1990757
7.5689058 218.03532 3.4645684
11.543992 217.55769 0.50003219
-6.9416008 222.53383 2.4863276
-3.0779984 222.84827 2.2135718
2.1120787 223.47733 3.8602729
8.447731 222.86543 3.0990248
10.472702 223.65306 4.4767241
-7.5330453 228.56314 2.8407681
-3.1331129 227.90067 2.8703673
2.2635894 227.91794 3.096786
8.5009174 227.98215 2.608825
10.946895 228.36154 4.1089163
-10.065557 233 1.1877666
-7.32549 232.95137 3.0751545
-2.7686293 233.29546 3.7351885
2.5475397 232.55405 2.4091337
8.2087183 232.90805 2.8136785
11.378278 233.06061 3.5564113
-10.111271 238.72728 0.25723693
-7.3736577 237.92703 2.2431366
-2.861069 237.92635 3.387862
2.4822958 238.07028 3.5114005
7.8197999 238.2348 3.1918275
11.283493 237.97935 2.5028975
-6.8518543 242.56805 2.0892379
-2.5896983 243.01634 2.5772669
2.3868525 243.11923 3.8266137
7.3039227 243.1834 3.1122878
11.192184 242.90987 1.4884914
-7.4803882 248.08374 3.3067882
-2.5729408 247.88248 2.2826908
2.1321647 248.08186 3.7932112
7.8733282 247.86945 3.230231
11.201447 247.84666 0.99149138
-10.109766 255 0.47288603
-7.2775073 254.05531 2.5075829
-2.5667846 254.36139 3.1010966
2.3763409 253.95815 3.2410073
7.7666411 254.40948 3.3054256
11.12215 254.63181 3.3087513
-0.68250161 39.62159 6.8509378
2.0384479 39.632023 6.6416574
7.0381937 39.544735 6.7914062
10.437701 39.412758 6.5484681
-6.7934623 43.77034 6.0247474
-2.618957 41.807236 6.4840355
2.7472134 41.54982 7.4254756
7.7873559 41.093628 7.7155714
12.421321 42.11092 6.3048463
-15.633565 49.660694 5.312077
-12.104404 47.248001 5.6311307
-7.4642448 48.117313 8.3309793
-3.2590873 46.557011 9.4500875
9.830266 45.361588 9.5661955
12.730817 46.248055 7.8572583
15.5265 46.555111 5.5995655
-15.835257 53.985161 7.2591276
-12.454521 52.758011 8.4464293
-8.4858093 52.238323 8.2864819
-1.3275717 55 7.4810591
0.98825854 55 8.1351824
5.7916565 55 8.0409803
12.998354 55 5.6687841
-20.180227 57.950096 7.5189786
-17.983953 56.399284 7.5010457
-6.7621989 56.950001 6.6280422
-2.6853223 57.816326 8.1319981
1.9925605 57.423729 8.3188477
6.6563721 58.18182 8.3842487
12.976283 56 5.5682907
-6.5887389 63.025002 6.8369622
-2.6943674 62.92857 7.8744898
1.2878916 62.794872 8.2724018
5.9321265 62.919998 8.3959837
10.413418 61 9.8777475
-6.6814637 67.615387 6.3561664
-2.7364981 68.432434 8.1968927
1.2871723 68.324326 8.3846226
5.8085322 68.370369 8.6837645
-6.5704942 72.625 6.0748892
-1.5537151 73.435585 8.5794535
0.52217126 73.472221 9.0910864
5.8556004 72.655464 8.6501884
12.984871 72 5.6524582
-6.0200615 78.097565 5.9124498
-2.1168652 77.846588 8.6207495
0.53196722 77.401459 9.062252
6.2492914 77.988098 8.7480421
13.015259 78 5.8501992
-5.6901579 83.444443 5.7142653
-2.8049307 82.875 8.2035971
0.99859428 82.199997 8.3794384
6.3862166 83.156624 8.9841871
-5.8582153 88.480766 5.7708845
-2.9056337 88 8.3414831
1.3269824 88.375 8.1944323
6.9639025 87.694443 8.7090006
10.269469 88 9.7470474
-5.8489919 92.73864 5.7218633
-2.9636378 92.75 8.2517033
1.6184464 93.5 8.4617777
6.3536501 93.571426 8.6828279
11.784332 92 8.0029392
-5.8670664 97.564102 5.805943
-2.6794925 97.731705 7.8421526
2.5093994 98.555557 8.183589
6.7361889 97.800003 8.2829199
12.931503 99 5.5151272
-5.9499617 102.91753 5.8534861
-2.6815565 102.77778 8.3496208
1.9499638 102.9 8.3937387
7.6134257 103.06667 7.736949
11.636745 105 6.205256
-5.9423108 107.79105 5.5879407
-2.2803655 108.58064 7.9125857
3.0118284 108.22727 7.2228928
7.205409 108.34782 8.1792383
12.591835 108 7.3038292
-6.1949615 112.65334 5.7849531
-2.085304 113.44 8.7321224
2.9294302 113.16666 7.6851425
7.4790182 112.57143 8.0317039
12.208664 113.66666 6.7866631
-6.620851 118.01227 7.5519309
-3.2382321 118.2 8.5051346
3.3175385 117.41177 7.8748851
7.5436506 118.14286 8.0274124
10.737568 118.36842 8.0796328
-6.4995384 122.49524 6.0044446
-2.9252837 122.80808 7.7473783
2.1706483 122.81818 6.3616505
8.9047222 123.71429 7.9697752
11.050993 123.4054 8.0583258
-6.2721033 127.39535 5.7665272
-2.9017191 126.87931 6.7527547
3.2063107 128.42105 7.632256
8.747035 128.25 8.4092617
11.068869 128.22951 8.3011684
-6.6161089 133.16216 7.8844581
-3.6503952 133.5 9.166398
4.1552296 131.88889 7.9966354
8.2336998 132.96001 8.1565371
11.17725 133.18182 8.573535
-6.8907785 138.17741 6.312676
-3.0032947 138.65089 6.9266143
2.5070369 137 8.6225243
9.0966539 137.71249 8.1965694
10.97749 137.94846 8.6774006
-6.6599526 141.96825 5.4370747
-1.7797372 143.04103 6.4880409
1.0312812 144.23189 6.179884
9.3130846 142.5 8.8589849
11.182615 142.55405 8.4240713
-6.5280304 148.125 7.6508174
-1.7791193 148.05911 7.6969161
2.0576861 148.2289 6.6472363
8.1283398 148.22223 8.0125389
11.389857 148.03999 7.9572272
-6.8957405 153.07483 6.698772
-2.573405 152.46692 7.8925233
2.5580895 153.08437 7.8999381
5.9953618 153.51376 6.3135252
10.970584 152.60001 8.6687965
-6.7660613 157.71875 5.654429
-3.3831599 158.18024 7.7864847
3.8803606 157.41692 8.1382256
6.6428294 158.23782 7.2281275
11.078244 157.8 9.3799067
-6.5944819 162.96774 8.0416965
-2.4719949 162.84697 7.1964755
3.0755866 162.47169 7.1080041
7.6749635 162.62456 7.1167603
10.494744 164.01299 6.3371348
-7.2219396 168 7.0980029
-2.2621779 167.8868 7.3884087
1.4387208 168.15703 6.1525803
8.6802197 167.70464 7.5026212
11.263173 168.22176 6.5506926
-7.5204515 173.325 5.8554492
-2.2542431 172.92465 7.5772362
2.199816 173.62245 7.7673864
8.8607063 172.82802 7.733952
11.542213 172.89494 7.0186524
-6.6262112 177.84091 7.7382979
-3.1528161 177.81667 7.3624935
2.3828006 178.11867 8.6738882
8.2738514 177.9489 7.6814489
11.361547 177.89655 7.7078147
-7.0058155 183.0641 7.6405563
-3.0808449 183.14423 7.32757
3.6891923 182.55475 8.5079451
7.0471992 183.22794 8.5081892
11.285943 183.009 8.2926016
-7.0597973 188.15329 6.3701701
-2.9154589 187.7027 7.2110801
3.2659631 187.54794 7.1324697
7.2408557 187.86613 8.2027864
11.101171 187.98529 8.5511417
-6.9361467 192.79105 6.6130466
-3.1309366 193.50847 7.4305625
2.5597596 193.17949 5.7147803
8.2834654 192.4151 8.3078489
10.870073 192.87837 7.6370082
-6.8281312 198.32704 7.9058886
-3.1225183 197.89873 8.3173561
2.0598922 198.7037 8.6430273
6.8464565 198.5 7.3696942
11.934349 197.76543 6.285233
-10.067756 203 6.3883939
-7.1267438 203.29373 6.7983737
-3.629781 203.17085 6.9976702
2.2656829 203.05959 8.8161755
6.0680523 203.06383 5.6277933
12.680938 201.42857 5.2506309
-7.1576967 208.42528 6.9736347
-3.5210254 208.26299 6.6366549
3.2564578 207.88696 8.3454103
7.0823822 208.37956 6.380713
11.217431 210 7.9015079
-6.7447553 212.96107 7.7823558
-3.8233778 213.07936 7.9689422
2.8090484 212.78947 6.6657424
7.5643992 213.16182 7.2840085
10.906399 212 8.1183834
-7.0006742 218.07272 7.2272782
-3.2337127 217.92281 8.2863188
3.1027746 218.21951 5.6932163
7.7684388 217.7347 7.8314247
10.468442 218.71428 5.8327847
-7.0427423 223.38025 7.3865333
-3.3455992 223.28761 6.9808588
3.0124345 223.21077 7.2966294
6.245666 223.19048 6.7770491
11.270224 222.89999 5.6242495
-6.8141489 227.77863 7.1922302
-3.3379517 227.93471 7.2755127
2.1737924 228.27486 8.406271
6.2347965 228.02824 5.7625699
12.297941 227.675 5.546833
-6.990799 232.93758 7.4848361
-3.4919415 232.55457 7.3376808
1.6274538 233.09386 6.5956817
7.1830006 233.10048 5.8678708
12.720875 231.18182 5.2130628
-7.00354 238.37959 7.9005442
-2.8853843 238.32372 8.3266315
2.3547449 238.09317 5.7818489
7.8216562 238.33762 6.8818102
-6.830627 242.88356 7.5308857
-2.8350096 243.24339 8.2414579
3.4683099 243.03261 5.8087811
7.6750116 243.00873 7.9551792
10.287679 244.24138 5.9886055
-6.7443581 247.62955 7.3869781
-2.6665988 247.63033 6.985342
3.6355524 247.32468 6.4784193
6.8550458 247.83391 7.5582652
10.751193 248.15573 5.6719899
-6.8250976 254.44489 7.9869747
-2.3568208 254.48946 7.8960581
2.0608714 254.65958 6.2020106
7.029789 254.58585 7.3201957
11.732656 253.98701 5.6175785
55 -5.0506401 13.842514
58.25 -5.1838865 14.306642
64 -5.0205798 13.819964
72 -5.179719 14.135609
78 -5.1925502 14.259022
83.5 -5.104074 14.063044
86 -5.1006432 14.71907
97 -5.1557312 14.261703
107.5 -5.121038 14.03821
55 -3.3072605 14.297134
57.471794 -3.8512826 14.493127
62.726028 -3.6035452 14.326627
68.613861 -3.3289475 13.969242
73.291046 -2.8145967 14.273645
78.111115 -2.2165186 14.324996
83.06192 -2.1258039 14.410989
87.916336 -1.988245 14.45652
92.476921 -2.3649859 14.537732
97.849312 -2.2819088 14.546318
102.47619 -2.2993293 14.534743
107 -1.8148781 14.364392
113.6 -3.493428 14.743055
118.66666 -3.7006121 14.738925
124 -4.5689111 14.885534
129 -4.5544362 14.878568
142 -4.4792061 14.985265
149 -4.5677562 14.913223
151 -0.21204001 11.967509
158 -4.4714341 14.959628
255 -4.4660048 14.956391
55 0.79119295 12.490893
57.621323 1.2206701 12.743722
63.078949 1.3363986 12.880253
68.341179 2.587971 13.155348
73.12162 2.6406078 13.34623
77.977776 2.5208704 13.576965
82.784019 2.4450395 13.84009
87.622643 2.0521054 13.885217
92.337349 1.8259121 14.0469
98.020836 1.9170147 14.105866
102.23077 1.2036704 13.793199
107.16666 1.4623097 13.449492
113 0.073280998 11.903107
121 0.071369998 11.92752
126.5 0.122121 11.867681
189 0.15445299 11.934487
213 0.172693 11.875514
255 0.165093 11.8541
73.75 5.1876473 14.757381
79.5 5.2014165 14.650771
84.666664 5.1723728 14.602386
87.599998 5.0880141 14.275177
94 5.0808949 14.26652
97.666664 5.1198201 14.388789
6.1292601 40.054657 10.191656
-0.36987528 44.843216 10.782627
2.7539246 42.752819 11.234185
6.7426796 41.725426 11.365902
-6.3013783 48.95731 10.430854
-2.5624413 46.41013 10.795213
9.7090015 45.533291 10.889767
10.959305 47.33889 10.592336
-10.290277 51.672009 10.077135
-8.7975712 50.664871 10.215516
-1.7004756 55 10.805962
1.0249852 55 11.113982
6.5879965 55 11.614447
10.663752 55 10.246684
-0.87536049 57.350651 11.837616
1.4567211 57.514153 11.326871
5.8766246 59.125 11.201721
10.378663 57.333332 10.863068
-3.177958 62.807693 11.448827
1.6846656 62.43 10.908916
5.7828064 62.339287 11.575872
10.056011 62 11.748496
-2.8750939 67.777779 11.920274
1.7407274 67.944443 11.298966
5.9415822 67.689651 11.041456
10.629383 66 10.115815
-2.3137722 73.800003 11.18821
2.0721402 73.415092 11.386234
5.6262221 73.227272 11.084507
10.418874 73 10.24877
-2.1370847 78.040543 10.847666
2.5002103 78.106743 11.136914
5.7238531 77.928574 10.829844
-2.2038472 82.882355 11.010271
2.8209934 82.91597 11.518926
5.8254986 82.867928 10.684828
-2.2997212 87.777779 11.095741
2.6731575 87.731705 11.65037
5.8175011 87.954544 10.813827
-2.4440434 93.0625 11.010614
2.453136 92.981483 11.751766
5.7263899 93.599998 11.000498
-1.7591344 98.172417 11.453314
2.3357925 98.121948 11.862225
7.5231919 99 10.649659
-2.494977 102.6 11.087843
2.958483 102.62162 11.702766
5.8461399 103.09091 10.646002
-1.9595044 108.17778 11.940093
2.4846499 107.76471 12.692346
6.7351556 108.38095 11.044172
-1.5440253 113.18627 12.665271
2.6472669 113.17391 12.965965
6.4033537 113.49438 12.362824
-1.6956744 118.09326 12.635586
2.4461124 118.07719 13.219954
6.4300561 118.17365 12.563544
10.423812 117.33334 11.545944
-1.6571546 122.81615 12.885958
2.4964726 123.07668 13.398739
6.5242701 122.824 12.513062
10.46517 122.91666 10.926642
-1.6109567 127.71622 13.19474
2.4869709 127.77352 13.443329
6.4355278 127.67368 12.788908
10.548532 128.03125 11.103711
-2.2479002 131.94286 13.141076
2.482218 132.6259 13.988691
6.3309402 132.55084 13.002114
10.528794 132.88637 10.824054
-1.9084487 137.4762 12.131288
2.4520342 137.46666 13.96495
7.1769795 137.16327 12.559525
10.575112 137.85001 11.083213
-1.6092961 144 11.645801
3.2505574 142.57143 13.609151
8.2432613 142.80646 11.74135
10.561205 143.27451 10.926043
-1.2486966 147.94298 10.697316
1.6562982 148.91566 10.395404
8.7769871 147.88889 12.068912
10.69541 148.03334 10.850889
-1.4440112 152.76631 11.269079
3.4940491 153.04321 10.378515
5.1353545 155 10.360708
10.62244 152.66667 11.325415
-2.0220389 157.88586 11.805563
2.9899051 157.86667 11.101688
6.0653338 157.79453 10.391372
10.059772 157.33333 12.043452
-5.6808481 162 10.024615
-1.8385973 163.00854 12.432505
2.5960603 163.35211 11.58204
6.9786696 162.86607 10.921964
10.740833 164 10.331894
-1.7125455 167.69318 12.818005
1.8597395 168.31093 12.158402
6.9784508 167.67857 11.414212
10.330791 170 11.296718
-1.805145 172.77942 13.433494
2.3948531 172.99286 11.733123
6.385303 172.91837 12.102754
10.683303 171 11.212259
-2.5900996 178.09091 13.133617
2.9785058 177.98462 11.54134
6.6033363 177.48485 12.538829
-1.9184403 183.27777 12.493465
2.459614 182.78572 12.979312
5.7489424 182.26086 10.843097
-2.4594567 188 11.25492
2.9300609 188.30769 13.798728
6.6112204 187.94118 12.262993
-5.9462285 192.5 10.030322
-1.538576 192.38889 10.410808
2.2819917 193.03773 12.145313
6.3217859 193.125 13.13893
-1.860651 198 11.709009
2.3719578 197.8125 10.895343
6.8889976 197.66667 11.676888
10.781119 199 10.174834
-0.191553 201 11.122491
3.6452601 203.01755 10.507007
7.858314 202.875 11.401264
10.850036 202.11111 10.44205
-5.8093591 207.5 10.040823
-3.6133108 209.60001 10.712903
3.1439035 207.57895 10.877491
6.1085773 208.23077 10.384796
10.772011 208 11.027349
-1.8765632 212.94286 10.646237
2.3578081 212.27777 12.011927
6.754703 213.83333 10.665562
10.812693 212 11.438617
-0.469345 216.57143 10.775962
1.8601851 218.5 11.373016
7.2958179 216.5 10.539307
-5.7442675 223.2 10.038633
-4.1983271 224.39999 10.109209
2.4671547 222.8 11.632629
6.073278 224.2 11.492406
10.358109 224 12.653471
-3.1365774 226.58621 10.092408
3.4869936 227.70589 11.284793
8.4659948 226 10.539375
-2.0257571 234.83333 11.044629
3.6275332 232.39999 11.163471
5.5298457 233.27272 10.751705
-5.480051 238.7 10.048266
-2.2388446 237.83522 10.580532
2.0842061 238 11.609866
6.9976649 238.24675 10.231116
-2.3900852 242.53409 11.673163
2.0512338 243.30435 11.166954
7.8945274 241.85417 10.230549
-0.2977348 246.39999 14.244733
1.5493696 248.125 11.837996
-5.5907774 254.10001 10.043116
-2.3437812 255 11.564966
2.7265038 254.70543 12.867288
6.9696355 255 10.397212
55 -5.5773387 17.95183
57.828571 -5.4957657 17.482182
62.136364 -5.6154509 17.315756
68.384613 -5.6114678 17.843828
73.470589 -5.4470019 17.256107
78.392159 -5.795723 17.443289
83.378784 -5.8123484 17.49037
87.745453 -5.8454938 17.664501
92.557892 -5.8785691 17.509129
97.959999 -5.8782988 17.913816
103.0303 -5.8466382 17.745943
107.41666 -5.9240279 18.103937
112.86957 -6.0627985 18.395971
117.61905 -5.8757997 19.088203
122.75 -6.0639129 18.331829
128.25 -5.9805031 19.131723
132.33333 -6.5113392 19.456568
137.2 -5.9810729 19.688992
141 -5.0242372 19.838947
151 -5.4720039 19.744255
186 -5.3393679 19.60047
55 -2.9116364 17.485106
57.693333 -2.9580936 17.238878
62.786518 -2.3783653 17.218937
67.96875 -2.7231219 17.066103
73.103447 -2.3619156 16.511408
78.227425 -2.2482421 16.627558
83.269775 -2.3863401 16.515795
87.988907 -2.3024993 16.78961
92.7957 -2.3994055 16.884733
97.851242 -2.2926314 17.127321
102.49791 -2.2823572 17.350668
107.89622 -2.3060777 17.56883
112.58667 -2.0169489 17.080339
117.60606 -2.247611 17.739536
122.33334 -2.2665658 18.567398
127.75 -2.1584098 18.14712
132.89999 -1.7721134 18.59145
144 -3.006341 19.767431
147.5 -0.59341699 19.964539
153 -3.0080371 19.673428
55 2.1688049 17.307274
57.704918 1.9769328 17.449326
62.641026 2.2639949 17.781433
68.31884 2.2483101 17.391085
73.234375 2.2842379 16.360224
78.385544 2.3545547 16.503111
83.270096 2.5684154 16.695244
88.070457 2.4738033 16.987679
92.855453 2.486886 17.272337
97.795219 2.7081423 17.687595
102.76256 2.9409606 17.809729
107.85859 2.9782155 18.152136
112.70345 3.029789 18.263536
117.43565 3.3319073 18.520033
122.72839 3.597327 18.771719
128.0125 3.6694484 18.609106
133.1842 3.4722648 18.868486
137.41667 3.1509686 18.934965
142.8 3.290581 18.909866
147.54546 3.9058862 18.958235
153.125 3.3203688 18.899441
157.16667 4.4605269 18.732756
163.75 3.4715867 18.988504
169 3.8559601 19.376591
172 4.6149778 19.096537
179 3.4937525 19.403612
188 3.4551539 19.888758
196 1.757643 19.761347
55 6.2375312 19.573685
57.261906 6.1657844 19.409895
62.5 6.1981735 18.9804
68.040001 6.0626001 19.051111
72.631577 6.0171757 18.284431
78.297295 5.5064969 17.251568
83.455879 5.7860575 17.518799
88.474747 5.6422343 17.430874
93.219048 5.6179757 17.623896
97.616165 5.7096519 17.740976
102.94118 5.8895521 18.43973
107.84615 5.706985 17.97949
112.4 5.8894882 18.79015
118.36539 5.8709402 18.938114
123.5 6.0565953 19.089041
127.22581 5.8644505 19.334862
133 5.9171619 19.416986
138.89473 6.1183343 19.213049
142.63637 5.8292074 19.428658
147.57143 5.857039 19.615219
153.31035 6.2600832 19.404419
157.85001 5.9209127 19.50144
162.16 6.0063348 19.592922
167.83333 6.2075491 19.425728
172.61539 6.0402627 19.666527
176.42857 6.3094134 19.578646
183.5 6.2665515 19.512318
188.33333 6.2805047 19.595522
192.33333 5.9379616 19.82036
198.77777 6.0717478 19.739304
202.5 6.1553135 19.674946
