# .PCD v0.7 - Point Cloud Data file format
VERSION 0.7
FIELDS x y z
SIZE 4 4 4
TYPE F F F
COUNT 1 1 1
WIDTH 1671
HEIGHT 1
VIEWPOINT 0 0 0 1 0 0 0
POINTS 1671
DATA ascii
-10.16784 224 -8.0226326
-7.1773901 222.74858 -7.7667198
-1.9389892 222.82376 -7.1273012
2.1266375 222.8287 -7.7189393
7.9380302 223.28012 -6.5148463
11.45862 221.5 -9.7745399
-10.134037 227 -7.6502614
-7.4876895 228.43933 -7.0671978
-2.4986804 228.14554 -8.1448107
1.988162 227.91246 -5.8094621
8.1765766 227.88235 -7.3606362
10.437303 228.78409 -5.3455482
-10.08093 233.8 -6.5687079
-7.4104099 232.88818 -7.5999861
-3.228864 232.86562 -8.3151159
3.3750296 233.05865 -6.6805954
8.2924347 232.89824 -8.240406
10.939897 233.28969 -5.8603578
-10.198076 238 -7.3064213
-7.2732706 237.7028 -7.363297
-3.4830091 238.09308 -7.2143397
3.5839827 237.68977 -7.5353842
7.472754 238.22105 -6.948719
11.267504 237.84 -6.5521379
-10.386801 241 -9.7967815
-7.2015386 242.5 -7.5791373
-2.5442004 242.7179 -6.1676579
2.8016756 242.79797 -9.0553131
7.4118228 242.84801 -6.6155963
11.161666 242.8465 -7.6783347
-10.05922 247.33333 -8.7993364
-7.3045454 248.01898 -6.578774
-2.2588952 247.55814 -6.7273512
1.1085134 248.15753 -6.0204177
8.0224142 247.86295 -6.8284812
11.057879 247.89873 -8.7503519
-10.072783 254.5 -6.983242
-7.3302841 253.92747 -7.3806801
-3.2795236 254.59091 -7.1779628
2.7311544 254.24933 -5.8898363
8.2065248 254.28539 -6.6345882
11.027326 254.47386 -7.292922
2.9641116 9.5505266 -3.0066462
-1.3900639 13.301602 -4.5251603
2.4244893 12.955206 -4.3599591
5.1845469 14.712502 -4.6530881
-1.0214769 15.194593 -4.9732957
3.1805644 15.303778 -4.8833594
5.3729835 15.710717 -4.8853526
-5.0893068 35.042324 -4.8677649
-2.0921538 33.8535 -4.2855487
2.574744 31.929007 -3.9087965
5.4789429 33.733498 -4.1176271
-11.755674 38.324539 -1.5166205
-7.2867932 37.884888 -2.43699
-2.5447307 37.887463 -2.0230703
1.7791089 38.972195 -1.3398743
6.7149882 36.731857 -4.3644176
-15.24364 44.540142 -4.9442577
-12.3183 41.828865 -4.0060582
-9.3642836 40.449257 -3.4550529
-3.2724981 40.437084 -0.88485378
2.9426351 41.133739 -2.4691072
5.7072835 43.768726 -2.2185619
-11.536408 45.216358 -4.9782543
7.08813 47.536037 -2.1275194
-10.250731 55 -3.6250429
-6.9498143 55 -2.9665577
-3.9249997 55 -2.3435004
1.6395446 55 -3.5117979
9.0087214 52.288872 -2.2804537
10.404916 54.5247 -3.9357636
-12.715227 58.599998 -4.1066236
-7.087564 57.738293 -2.9500582
-4.0003848 57.44762 -2.311254
3.0120649 57.454544 -3.8537688
7.4541273 56.350201 -2.9404018
11.226013 57.747833 -2.6360269
-6.8948112 63.134148 -2.8118534
-4.2521844 62.795082 -1.8203955
3.9109056 62.96154 -3.870115
5.622088 63.486488 -2.2036042
13.345343 62.70826 -2.561043
-6.8273993 67.875 -2.6390338
-4.3669477 68.299469 -1.407936
4.2279749 68.474579 -3.8982458
5.4523292 67.75 -3.1223485
14.58894 66.186066 -1.8056612
15.701556 68.268158 -2.7850966
-6.0382318 73.052208 -2.2891932
-4.3375783 73.29464 -1.0939764
3.9861088 73.203949 -3.9130154
5.3650069 73.531036 -3.3051834
13.159357 72.622871 -4.0722198
17.391632 72.564423 -2.6232142
-5.7812176 78.208 -2.5428832
-4.384625 77.866669 -1.2210876
2.6462634 77.953491 -3.4680424
5.6957245 77.423531 -3.2147791
12.59505 76 -4.6989622
19.209417 76.784996 -3.0958667
20.332159 79.202797 -3.6350038
-5.8122149 82.991302 -2.6171525
-4.4723163 82.756096 -1.3474425
3.2732015 82.754715 -3.9115319
5.8652186 83.114586 -3.7873824
12.73292 81.5 -3.8449955
21.643913 82.295975 -3.9937506
-5.6989255 88.064896 -2.7419853
-4.3786201 87.639999 -1.609597
2.2626755 87.521736 -3.4263902
6.0467048 87.786667 -3.5849972
12.763371 88 -3.654233
23.283228 86.070618 -4.4433708
-5.905901 92.900208 -2.7690983
-4.3080206 92.577461 -1.9230216
0.68054676 93.384613 -3.1335626
5.9493184 92.928574 -3.4389136
10.053481 91 -1.517097
-5.9996896 97.898849 -2.8292828
-3.7078946 97.678574 -2.2598472
1.034416 98.066666 -2.5951593
5.8976974 98.189186 -3.9219992
10.088194 99 -1.581736
-6.2545199 102.76923 -2.688271
-3.2984838 103.38889 -1.9774573
1.3454537 103 -2.5312431
6.059113 103.18182 -3.7351105
12.809858 105 -3.37749
-6.3840289 108.00819 -2.138489
-2.5762057 108.23529 -1.9496999
1.439091 108.04546 -1.9744925
6.3367991 108.4 -2.9257319
12.633947 109.8 -1.5607531
-15.78971 114 -3.6247239
-6.6632576 112.93827 -2.3253367
-2.0032885 111.95652 -2.8948302
1.8969853 113.4 -2.4514618
6.6158814 112.96429 -2.1884437
11.562587 114 -3.2818725
-16.365868 116 -3.618134
-7.1637359 118.14286 -1.9948884
-3.0263903 118.09091 -1.560189
2.9049523 117.3125 -0.94525427
7.5890961 118.05264 -2.6813495
10.59822 119 -0.76578599
-6.9496441 122.89726 -1.8472906
-2.9529841 123.54546 -1.0640304
2.3842418 122.9 -1.7338197
8.6122684 122.83784 -1.6952565
11.306356 122.85294 -1.2652888
-7.5565333 128.59331 -2.9710548
-3.7467258 127.4186 -2.4364111
2.6970966 127.51613 -1.2598041
7.6145272 128.39583 -0.92175764
11.472397 128.22536 -0.91094452
-7.4751463 132.63441 -2.7296417
-3.9943564 131.55556 -3.9720469
4.3214679 131.72728 -0.82372451
7.8578858 132.88235 -0.96945184
11.204784 133.10959 -0.38730544
-7.3497524 138.18628 -1.4772259
-2.3534343 138.89899 -1.1764902
0.26762933 140 -1.1444191
8.6668177 137.38461 -1.0341465
11.215307 137.75862 -1.1039994
-7.4151478 143.20155 -2.3477736
-2.1996469 143.25705 -1.6156851
1.3411601 143.72624 -1.2751312
9.3640366 142.78947 -0.37613624
11.588898 143.1875 -1.6014479
-7.7167349 149.01436 -3.9747121
-1.6624964 147.51447 -0.88144439
2.0552602 148.28711 -1.7711883
5.8567872 149.25641 -1.3251318
11.44377 147.07692 -0.47107697
-7.8772407 153.39999 -1.5421257
-1.9769404 152.21951 -2.7089891
2.9816961 152.61707 -0.81106001
6.240056 153.18367 -1.4628319
12.025043 152 -0.1198265
-7.6272831 158.00917 -1.6398878
-2.7416503 158.71153 -1.1843398
4.1187682 157.02649 -0.63084561
7.1233363 158.07593 -1.6860529
10.107989 160 -1.6796601
-7.5412722 162.63333 -2.9841113
-2.0960641 163.23215 -1.423824
0.74908316 163.93976 -1.2784743
8.373353 162.7037 -1.4679853
10.746716 163.57237 -1.6389587
-7.5901542 168.29527 -4.0100164
-2.3121214 167.56227 -2.1595891
1.7731375 168.07651 -1.3906891
9.0261984 167.71133 -1.1381629
11.483616 168.02295 -1.6362431
-7.4598098 173.03125 -0.97104126
-2.166599 172.36232 -1.1207523
2.0125794 172.65048 -2.3500695
8.3437557 172.9926 -0.52553725
11.541698 172.79591 -1.2811762
-7.6464777 178.14142 -2.3474984
-2.7776132 178.58571 -2.0049081
2.5318716 177.84616 -0.90166759
7.0572562 177.61458 -1.3389777
11.419642 177.79131 -0.46912614
-7.2898312 182.66216 -3.3765707
-2.5148029 182.58696 -2.099725
3.5796309 183.29167 -0.64597017
6.8479624 183.12962 -2.7295575
11.597665 182.3 -0.17059653
-7.6478014 187.86192 -2.7556665
-2.9387856 188.24084 -3.1511502
2.0276792 187.72 -1.7345891
7.8299003 187.52101 -2.5826323
10.351036 188.36842 -1.9551911
-7.2988801 192.95122 -1.6435229
-2.9216897 192.56702 -2.7396603
2.2259307 193.56566 -2.7808368
8.9903183 192.5238 -3.3388283
11.07121 193.20482 -2.7259004
-7.5661535 198.15678 -2.9255638
-3.5033782 198.38052 -2.0160353
2.4445662 197.60001 -3.5368428
6.5938039 198.30769 -2.4240546
11.723009 198.11111 -3.4728317
-7.4828691 203.70354 -2.6008291
-3.3951974 203.13824 -2.6510272
2.3500071 202.83168 -2.2753017
6.828064 202.89999 -2.1338885
12.158679 202.37209 -4.3884835
-7.2259517 207.50508 -2.4527955
-3.3583 208.10875 -2.3361692
1.9995303 208.34166 -1.216035
7.5291586 208.3022 -2.909564
10.110724 206 -0.29909101
-7.2509308 213.08896 -2.2616818
-3.045994 213.01247 -3.115437
2.3135419 213.11734 -2.0786226
8.1045923 212.93137 -3.3975036
10.355672 214.19354 -1.8994926
-7.3785086 218.27898 -2.6262515
-3.2047384 218.13333 -3.0273228
2.53144 218.51047 -3.0983367
8.5766506 218.03461 -3.6099372
10.780371 218.55789 -2.5411501
-7.2003007 223.06607 -2.0529084
-3.2685037 223.30481 -1.7363437
2.8437788 222.76833 -3.8300066
7.0621581 222.98679 -2.94627
11.363916 223.26756 -3.1321249
-10.079894 229 -2.9471669
-7.1658649 227.49353 -2.4783115
-2.7447331 227.78708 -2.3379953
1.9012876 228.03654 -2.8532047
6.6771154 228.12547 -2.3628767
11.723851 227.67583 -3.8449271
-7.2367306 233.01224 -2.6890309
-2.6694033 233.05687 -3.31513
1.4899852 233.21176 -1.9870491
7.4809813 233.21014 -2.7944252
12.142239 232.30328 -4.5339212
-7.158978 237.86157 -1.8301084
-2.6052423 238.10658 -3.5879071
2.6638992 238.09071 -2.2868383
8.0025663 237.92157 -3.2905545
10.423738 239.5 -1.9951383
-7.2283797 242.80371 -2.523695
-2.753406 242.83919 -2.1146681
2.7678933 242.9467 -3.1642168
7.7878833 242.79176 -3.0673878
10.601027 243.42029 -2.1654038
-7.1171641 247.56393 -2.6585996
-2.2517409 247.62103 -2.1507177
2.664664 247.7827 -3.5500758
7.2830367 247.88304 -2.6397355
11.147363 248.20297 -2.6566498
-7.1431003 254.28491 -2.2205234
-2.2095068 254.50923 -2.9260299
2.1772227 254.41405 -2.6249855
7.3067298 254.45854 -2.6753821
11.53055 254.05682 -3.4160116
-11.70588 39.042519 2.10077
-7.6077147 38.306499 2.0952704
-2.5441325 38.951656 2.2084794
1.9853315 39.574368 1.8414221
-15.280974 44.448864 4.527894
-13.180582 42.717052 4.4423838
-6.3764458 40.774773 3.4476616
-1.6511843 41.282795 3.3908033
2.5529869 41.483089 2.9454217
5.2176647 44.447437 1.5739321
-15.51071 45.793621 4.1268935
-14.273255 45.440693 4.283771
-5.191061 45.426201 4.4823613
-4.4751892 45.289135 4.5494175
4.9850712 45.199467 4.8877587
6.2918115 47.460426 2.4604621
-7.0315638 55 2.3684373
-3.2316604 55 2.9296813
0.91413748 55 2.5513647
8.3109894 52.408413 2.4732597
-11.74052 58.666668 4.6674933
-6.5787106 57.086704 2.266789
-3.0832119 57.404125 2.6127129
1.3073907 57.373985 2.8541992
8.7501392 56.742142 2.6175709
10.790311 58.198219 1.6636094
-6.420516 62.637428 2.5876794
-3.7563717 63.110809 2.3598673
1.774429 62.62838 2.4317195
6.0887513 62.471909 2.3118863
12.524237 62.265675 1.2529641
-6.0367513 67.969696 2.4224336
-4.1313195 68.318413 2.220335
1.3120257 68.202896 2.246577
5.754034 68.202705 1.2873799
14.369412 66.403564 0.70907313
15.407613 68.783928 0.33588091
-12.41156 75 4.6478562
-5.7717447 73.439713 2.3237848
-3.9834204 73.157997 2.3228099
0.90353328 73.447891 1.9692906
5.8589172 72.620155 1.6379756
16.19021 70.598663 0.13870211
-5.505723 78.34008 2.424582
-4.07758 77.812805 2.4508784
1.4213526 77.655266 2.3845696
5.9425273 78.191666 2.2397346
14.979615 78.748322 4.0859046
15.372038 79.279465 3.8922224
-5.5283318 83.21801 2.3858445
-4.1644425 82.647675 2.4693327
2.4248445 82.540146 3.1264105
5.9824762 82.775703 2.1332169
10.02948 85 2.549386
16.275967 81.236679 3.2868576
-5.674789 87.988937 2.4552977
-3.9755206 87.726387 2.6723669
2.5703781 87.830772 3.4802437
6.159615 87.205132 2.025074
-13.027607 93 4.669559
-5.6726108 93.032784 2.3476062
-3.6212533 92.851349 2.5437031
2.3240948 92.985718 3.408843
6.6011381 92.869568 1.9096859
-14.09602 98.666664 4.6061215
-5.7646446 97.812965 2.4231615
-3.5209868 97.697678 2.8429732
2.9176028 97.648651 3.5705237
6.620894 97.419357 2.115061
-13.105103 102.5 4.6982679
-5.9144955 103.05444 2.6910942
-3.2625515 102.975 3.4381375
2.6889632 103.34375 3.2608044
6.5215921 103.5 1.9101206
-16.136806 107 4.6307635
-13.499904 110 4.6204352
-5.9260068 108.01158 2.3348241
-2.5031149 108.23077 2.9876401
3.0992439 108.47369 3.4434593
6.5888829 108.72916 3.0933897
-13.354396 112.33334 4.6167855
-6.3566837 113.5 3.1086514
-2.2354634 113.55769 3.6766438
2.9205632 113.29915 4.161253
6.5188131 113.42424 3.3782015
10.63981 114.66666 1.0089389
-14.4286 120 4.9953661
-6.4475398 117.46304 3.5792611
-3.1551723 117.98179 4.2687593
2.6927671 117.99 4.2184477
6.8143454 118.19786 3.3712397
10.34286 118.66666 2.0000753
-14.973788 124 4.637197
-6.15341 122.95238 2.2833331
-2.179621 122.38191 3.678103
2.5727174 123.05347 4.4081268
7.0496721 122.90455 3.3304796
10.716318 123.575 1.2562306
-16.225735 126 4.724453
-6.575336 128.66197 2.8872652
-2.3660698 128.11429 3.2860332
3.2143438 127.71429 4.2071986
7.1926045 128.0303 3.2897539
10.632745 128.27777 1.2077651
-6.5809674 132.74274 2.8767593
-3.4050167 133.16832 3.6609008
3.997052 131.95 3.7834878
8.0058117 132.75 2.1610951
10.807229 133.05504 0.92267203
-6.5190778 137.51021 1.5349313
-2.9655552 136.8125 2.77157
2.3051448 138.28572 4.2560353
8.9681921 137.45161 1.5855591
10.782859 137.74107 0.9202643
-6.3841362 143.84467 2.4891932
-1.4319953 144.31506 2.8920584
1.5689896 144.07143 3.3621137
8.9441109 142.71428 2.1305954
10.735559 142.73334 1.2051127
-6.7510076 147.96753 2.2038381
-1.9295402 147.98044 2.2820849
2.0193813 148.9214 2.3563511
9.2158842 147.57143 0.39286742
10.505559 147.91304 1.7065369
-14.033471 151 4.848042
-6.5404329 152.304 1.2278715
-2.4656532 152.82112 2.2502251
3.2476962 152.92294 1.5144725
5.6539445 154.30986 2.1851761
10.635297 152.8 1.173331
-6.4416695 158.09302 2.3015852
-2.6995752 157.97647 2.6823177
4.1833162 156.99367 1.0876777
6.1410165 157.9892 1.8387747
10.829111 157.5 1.558038
-6.7553697 163.18085 2.199857
-2.3055513 162.84328 3.982682
2.1885965 163.38637 4.0079956
7.1915836 163.009 2.648803
-7.0596843 167.71428 1.1709297
-1.8909657 168 2.3382359
2.1331024 168.21379 3.9036586
7.1804962 167.61111 2.8065882
10.554874 166 1.6657749
-6.5880623 173.6875 3.0368366
-2.6011245 172.43056 0.6980142
2.1338944 173.45959 2.1444168
6.5154099 172.60715 3.5847709
-6.5450053 178.44118 2.4495826
-3.3790414 178.19672 2.2226729
3.0973032 177.8381 1.2481037
7.3958206 178.7234 1.6149764
10.245923 180 0.034839749
-7.2187796 183.125 1.1472605
-3.6531627 182.83333 2.0338278
4.0358973 182.09259 0.88020533
6.6406522 182.97745 1.1733711
10.652905 183.34883 0.1574465
-6.8437142 188.06757 2.6897712
-2.8536696 187.7 1.5804634
2.8948197 188 3.2817128
7.8242121 187.69354 1.0740826
10.98529 187.47917 0.39103258
-6.6577473 193.19768 2.7134488
-2.7551072 193.25533 2.8094099
1.3436247 193.84146 2.6927736
7.8496137 192.53847 1.7080916
10.938617 192.95833 0.79979402
-7.134584 198.27536 1.3149204
-3.477421 198.11267 1.8304329
2.1743484 198.40196 1.8089454
7.8224626 198.39999 2.4366233
10.834064 197.66667 1.1611738
-6.987978 202.9176 1.8938861
-3.9653995 203.18401 0.63806748
3.1781833 202.7114 1.2990822
5.6634102 204.24138 2.639781
10.543324 202.25 1.5820675
-6.8651166 208.29924 2.9030952
-3.727829 208.41806 3.3951614
4.2273936 207.42223 0.90512109
5.9053326 207.92929 1.7502569
10.897606 207 1.793023
-7.0057836 213.13725 1.5877293
-3.2553098 213.21591 2.1931138
2.2575026 213.61111 3.401638
7.0893707 212.9077 1.3294177
10.606276 215 2.1472609
-6.9900532 218.24445 1.6291755
-3.3316932 218.05534 1.0328004
1.7677351 218.64285 2.7307179
7.4931159 217.14 0.60388923
-6.6913915 223.00723 3.1260536
-3.918566 223.01089 2.8802881
2.2258503 223.02985 2.0035536
8.5126305 222.76471 1.3209132
-6.958457 227.91748 1.8548174
-3.9282792 227.82549 2.5950863
3.2695246 227.52597 1.6459893
5.304739 229 3.0437946
-7.1074286 233.40965 1.9509498
-2.9531314 233.34726 1.9951006
3.7354362 232.56863 1.4840978
6.3751979 233.66304 2.1615579
11.423021 234 1.046989
-6.5069728 237.65762 2.8585861
-2.8461628 238.00737 2.319525
2.5734601 237.88 2.8029275
7.030663 238.10265 1.6028464
-6.6923785 242.78624 2.0899553
-2.8097391 242.4171 1.8620324
1.8355108 243.05405 2.5744116
7.3197422 242.18958 0.7615366
-6.918849 248.4518 2.2783005
-3.9680538 247.72974 1.7480465
2.0923147 247.85185 2.5133474
7.6238499 246.76923 0.6212337
-6.6465187 253.909 2.6172917
-2.6082957 254.69075 2.3923726
2.3159041 254.63486 3.1230924
7.0007243 254.99524 1.4801489
55 2.9678426 9.5439653
56.932331 2.975565 9.5497599
62.28125 2.9694316 9.5500326
67.25 2.9549849 9.5923662
73.5 2.9349384 9.585494
78.199997 2.9303336 9.6003017
82.666664 2.9339371 9.6130037
87 2.95982 9.5778275
94 2.9127419 9.6745129
104 2.8786221 9.6430559
107 2.9677341 9.612627
117 2.9504111 9.5959435
135 2.866338 9.6512003
154 2.9702621 9.5895691
219 2.959085 9.5603542
255 2.9591064 9.5664158
-10.794907 39.691559 6.3339391
-8.1918879 39.066559 6.8244491
-2.0329149 39.666451 6.3888984
2.6594715 40.010471 5.2517562
-12.454521 41.685482 6.7652626
-6.7992277 41.747887 7.4023542
-2.6693473 41.14679 7.7043858
2.0070102 41.601833 6.641077
-15.806218 46.600266 9.1529589
-13.682792 45.700108 9.3083162
2.0237978 46.304604 8.6612558
5.7906399 47.491302 5.7278695
-10.961349 55 7.2409291
-7.7198639 55 7.2197361
-3.5124552 55 6.1849656
1.540023 52.622284 7.8291779
7.3208261 51.043358 5.2843204
-15.189316 56 9.7515812
-12.797819 58.200001 6.3336878
-7.6713624 57.392738 7.3745465
-3.4930525 57.81818 8.1888552
0.84547377 57 6.5162206
-10.92263 64 7.2742558
-7.298583 62.666668 7.1593566
-3.3089571 63.153847 7.6946611
5.4920373 62.333332 5.2739944
-10.367332 68.333336 7.0793777
-7.2052283 67.807228 6.7853947
-3.0431087 68.08889 7.2634344
2.5816026 68 6.522223
-10.235241 73.25 7.5621262
-6.8542776 73.397263 6.9131613
-2.9214926 73.039215 6.766561
2.9454517 73.214287 6.9424906
-10.456016 77 8.890295
-6.8931303 78.4375 6.3517008
-3.9036114 77.75 6.1525455
2.4750404 77.583336 7.0190873
-11.358008 85 9.9424219
-6.6539779 83.385712 6.4078526
-3.4029217 82.727272 6.8510923
3.1233618 83.1875 6.4830427
-11.027183 87.333336 7.8485017
-6.5116739 88.214287 6.3252339
-2.9659407 88.166664 7.1028562
2.6629438 88 6.2431955
-10.450586 93.199997 8.2740011
-6.8553734 93.277313 6.7678351
-3.5018604 93.458336 6.7009311
3.049634 93.222221 6.1012783
-10.588661 98.32 8.5592051
-7.1745906 98.450516 7.3796453
-3.6465209 98.569229 6.7928562
2.4460711 98.464287 8.5292864
-16.256636 103 5.1322112
-10.584901 103.27273 8.8112907
-7.1952357 103.15409 7.71805
-3.3037221 103.50262 7.4239902
2.3852828 103.42268 8.5215626
5.3460555 104.66666 6.8535171
-10.554593 108.12676 8.8477345
-7.1521015 107.97462 7.8190341
-2.794776 108.43011 7.7827334
2.3889208 108.2923 7.9547324
5.6991615 108.8421 6.1523604
-16.337442 111 5.1245589
-10.596972 112.73333 9.0429621
-7.1182132 112.68018 7.9609118
-2.2659128 113.16666 7.6585569
2.2776895 113.17673 7.5215011
5.5438104 113.30909 6.1217012
-15.386757 118 5.8419628
-10.531022 117.32258 9.0745163
-7.1269889 118.48139 6.6269011
-2.2681246 117.9916 7.3334122
2.3407638 117.94795 7.2574415
5.6063828 118.04762 6.0583401
-10.573455 123.23077 9.1579542
-6.9849582 122.95697 5.9187837
-2.7889898 122.89238 6.5510111
2.381727 122.95238 6.988688
5.5951872 122.8 5.9294906
-10.549468 127 8.2743368
-7.1067595 127.94803 6.1927629
-2.9298532 127.84547 6.573874
2.2855279 127.90244 6.6635318
5.6581373 127.8125 5.8839016
-7.2953691 133.09441 6.449367
-3.0815399 132.7451 6.9200435
2.498904 132.80107 6.7680664
5.8722386 132.71875 5.7828422
-7.2266631 138.20155 6.5409517
-3.2422333 137.55357 7.0142283
2.5372961 137.51471 7.3455253
5.6805563 137.39999 5.6374502
-10.161516 144.5 7.71348
-7.2375984 142.87143 7.019927
-3.3828976 142.7619 7.0603933
2.3682501 142.81818 7.9117541
5.7942662 142.33333 5.7455335
-10.258671 148.89999 8.065135
-7.243124 147.8 7.3037992
-3.1306884 147.69565 7.6131544
2.3746459 148.03572 8.3024616
5.5446329 147.25 6.7184334
-10.364503 152.5 8.3725357
-7.804863 152.77551 7.7733274
-3.1391661 153.5 7.6684408
2.5811076 152.1875 8.5777502
5.3545589 153 6.862566
-10.489075 157.5 8.7317438
-7.6733294 158.22 7.9999709
-2.6318514 158 7.7556076
2.196002 157.66667 9.6636057
5.3004451 157 7.2879081
-10.656715 162 9.1021214
-7.4239693 162.45161 8.0294809
-3.3785233 163.54546 6.8153005
2.1796274 163 8.8883591
-10.550635 168.5 9.0182896
-7.2059021 168.22728 8.3952103
-2.135077 168.13954 5.2501755
2.0298595 168 6.5103574
-10.240231 172 7.9365091
-7.3842602 173.61765 7.9222484
-2.183774 172.375 5.9882917
0.90463269 173.04762 5.1936607
-10.59728 178 7.8698635
-7.139359 177.13333 8.0004215
-2.4542191 178.57143 6.324029
1.92465 178.39394 5.5425844
-7.7027946 183.38889 7.7529397
-2.3984091 183 6.3589854
2.1221893 183.8 5.6976094
5.4616055 183.5 5.1346159
-10.185442 186 8.8613005
-7.5510974 187.21428 7.3605342
-2.0402868 188.33333 6.4117846
3.6638067 187.46666 5.6346531
6.1782374 188.28572 5.2708006
-7.8012896 194.2 6.6465278
-2.7925513 192.8 6.8614969
2.60322 192.5 6.2693286
5.546433 193 5.7250705
-10.410448 196 9.5520411
-7.8021164 197.55556 7.9005737
-1.0628065 197 6.120542
2.95806 197.33333 6.5224404
5.5892739 199 6.169558
-7.9594898 203.16667 7.8107061
-3.6026969 203.60001 8.0717077
2.0706306 202 6.9947715
-8.7249012 208.8 8.9236727
-2.0430884 208.71428 5.8143616
0.34521198 207 7.5892043
5.277576 209 6.8495679
-10.029356 212 8.8529959
-7.7410688 213.85715 7.5622096
-1.7657223 212.14285 6.6385055
0.79334849 212 6.6299458
-6.8826694 216 6.3619184
-3.428719 220 6.7947941
3.4177284 218.39999 6.4954329
5.7227149 220 5.2668471
-7.8683834 225 7.008265
-3.3071747 223 8.0001945
4.0716934 221.2 5.5497766
6.396606 222 5.2313209
-8.031004 226.5 7.7435384
-2.9014597 228 5.3135843
1.1721045 228.5 7.7677598
5.425982 227 5.7340488
-8.4076424 235 7.1854434
-4.1554008 233.2 6.8549485
2.8598909 235 8.9444885
-7.4329791 236.41176 6.8222055
-2.0536788 239.07692 6.3668036
-1.0615194 241.77777 6.1864762
0.13552083 243.66667 5.6541324
-8.3339252 247.16982 7.2305598
-2.8379643 247.25 5.3223362
2.2971966 249.33333 5.8803186
5.5706282 249 6.8325572
-10.551756 254.96297 9.8691607
-8.273407 254.86609 7.6479321
-1.4545403 255 6.0235157
3.0209367 254.45512 5.5484052
58.5 -5.1396103 14.966175
73 -5.1202431 14.967469
79.666664 -5.0986066 14.96566
83 -5.1231389 14.937734
87.5 -5.1014242 14.881768
92 -5.1569371 14.8758
97 -5.0213046 14.930981
102 -5.0648179 14.927058
55 -2.2472186 12.316451
57.474747 -2.1468391 12.512168
62.86076 -2.1930633 13.401571
68.375793 -1.3699417 13.458056
73.370239 -1.00142 13.506902
77.912003 -1.3434376 13.767745
82.880737 -1.6472299 14.039657
87.833336 -2.1888859 14.178329
92.834709 -2.8362281 14.28938
97.752945 -2.9977202 14.562861
102.45946 -2.8684034 14.476553
108 -3.1860716 14.655795
112.83334 -3.3233325 14.288972
116.5 -3.0315037 14.238738
129 -2.1732426 11.7059
137 -0.62461102 14.817111
147 -2.201293 11.744944
160 -2.2115431 11.717443
165 -2.1279459 11.734571
178 -2.1170363 11.687091
187.5 -2.1267815 11.661081
255 -2.1190207 11.657867
55 3.0788715 13.044794
57.832512 2.3708766 13.120201
63.635468 2.0215302 12.607025
68.458435 2.2525163 12.557536
73.116409 2.3520653 12.788083
77.842918 2.5394959 13.074971
82.653336 2.5375385 13.415195
87.671295 2.7999187 13.689587
92.716415 2.6654606 13.896247
97.777779 2.8905139 13.780518
102.6 3.7906888 13.809583
107.42857 3.150985 14.160261
112 3.7899621 14.056757
75 5.2308478 14.942522
77.5 5.1452646 14.553718
83 5.2183247 14.74389
89 5.1029019 14.346115
92.666664 5.2279334 14.747276
98 5.1829772 14.585726
103.33334 5.1723971 14.621251
106 5.2715802 15.010221
-10.797324 44.731297 10.73071
-7.2844396 43.23893 11.09706
-2.5230861 41.843464 11.375868
0.10815162 44.850758 10.687118
-15.836538 46.913624 10.406722
-13.127681 45.76041 10.658631
1.0014919 47.055054 10.785431
-15.565953 55 10.111022
-11.99621 55 13.920135
-9.2534628 55 10.535676
-3.4428265 55 11.230173
2.5045354 50.505619 10.338198
-16.078104 57.640385 14.520119
-13.31391 56.93079 14.461445
-7.9361668 57.04348 11.821781
-3.9416223 57.457447 11.20367
-17.69771 65 13.136968
-11.439273 62.75 13.449624
-7.5773726 62.828571 11.97753
-3.5576169 63.1875 10.943711
1.643887 65 10.959917
-13.334455 67 13.439263
-6.7774639 68.133331 12.782543
-3.7856109 67.08696 11.61202
0.213006 70 13.372991
-15.119873 71 13.283187
-11.256046 74.25 13.524288
-6.5683618 72.92308 12.593016
-3.989691 73.071426 12.00334
0.59087199 73 11.559517
-14.364179 77 14.680145
-6.6779938 77.954544 12.153663
-3.7697225 77.615387 11.370397
0.69703001 78 11.479376
-11.360031 84 13.837667
-7.0639606 82.85714 12.728224
-3.8249886 83.333336 11.010592
-11.61516 89.25 12.36022
-6.8247108 88.5 12.382645
-3.4784527 87.928574 11.787749
0.018025 86 12.964289
-11.391991 93.620689 12.268876
-7.9495068 93.868851 12.449988
-3.038372 93.463417 12.732227
1.2027732 93.222221 13.274718
-11.29294 98.157898 12.200916
-7.9693179 98.3125 12.069532
-2.3654165 98.585182 12.700709
1.333233 98.565216 12.678382
-11.31173 102.90141 12.119705
-7.8498583 103.11957 11.940013
-2.1395786 103.16428 12.460246
1.4955214 103.42975 12.154205
-11.366318 107.85938 12.107536
-7.6144295 108.08823 11.933676
-2.1329143 108.0304 12.443888
1.6336259 107.94301 11.879906
-11.325629 112.9403 11.980504
-7.5125475 112.7382 11.856759
-2.2493987 113.0625 12.410287
1.5621376 113.00671 11.539618
-11.189098 117.72222 11.671999
-7.5537791 117.664 11.833208
-2.2871578 117.76471 12.332747
1.5015428 117.62 11.692913
-11.324954 122.83334 11.744327
-6.9009423 122.46296 11.775657
-2.2288427 122.81721 12.297746
1.4829396 122.60416 11.795738
-18.725695 129 13.412686
-11.321279 128.46666 11.385325
-7.4461269 128 11.732506
-1.8293315 128.06667 12.268682
1.4308219 128.56 11.319089
-11.630809 132.75 12.394312
-7.4929023 133 11.725018
-1.8639743 132.82353 12.534794
1.0705434 133.17241 11.719448
-11.838371 138 13.113182
-7.5759068 137.1579 11.050025
-2.4197962 137.64706 12.47701
1.3994299 137.95833 11.124069
-10.724461 142 12.646618
-7.047029 143.28572 11.995717
-2.0392115 143.03703 12.704088
1.203146 143.5 11.123143
-11.097019 148 12.424655
-6.8169847 147.45454 12.95538
-2.2065268 148.25 13.422457
1.0998123 148 11.60634
-11.85602 154 13.326265
-7.9236999 153.42857 11.840102
-1.8257792 152.85715 12.763258
1.335356 152.8 11.074099
-12.401197 156 12.931754
-6.6947126 156.75 12.786181
-3.402806 157.8 12.860525
1.753623 157.66667 11.257066
-11.940205 163 12.952164
-6.2590227 162 12.640015
-2.7473505 163.39999 11.875598
1.014328 163 11.890651
-7.4657393 168.25 12.478027
-3.3982146 168.16667 12.541435
0.89576977 167.75 11.921729
-10.855459 175 12.216303
-7.8745217 174.77777 11.451984
-3.650491 174.33333 10.82328
0.79787236 173.33333 13.055801
-12.868089 178.46153 13.705587
-7.6619058 176.71428 12.067876
-3.9119704 178 11.029881
0.70659798 177 12.41517
-10.626393 181 10.387376
-7.6329117 181.39999 12.293375
-4.9552679 184 11.696057
-6.9526134 187 10.573305
-4.4211063 186.66667 11.891605
-5.3253565 193.33333 13.25766
-4.5203214 192.33333 11.639926
-11.023263 196.5 11.646802
-8.6619101 196.33333 11.240791
0.46141499 197 12.536104
-11.249484 203.8 12.699629
-9.4622192 204 11.050249
-11.102745 206 13.32434
-6.8159328 206.66667 12.586601
-10.714727 213 11.291433
-9.4024401 214 10.814048
-4.9523702 217 13.638245
-11.89506 225 13.393756
0.403155 224 11.786058
-10.761761 233 12.220729
-9.1366043 232.25 11.701382
4.0638471 235 14.965621
-10.9839 240 12.265257
-4.5125241 238 10.155945
4.1954408 240 14.909723
-11.372765 243.5 11.28906
-9.729826 244 10.250999
-13.856714 247.5 14.606907
-5.5440788 248 13.057583
-3.7314095 248 10.241068
-18.597399 255 13.5887
-11.106277 255 12.066659
-7.9145131 255 11.661962
-3.8825223 254.98863 12.029495
0.62798595 255 11.815842
55 -5.6851554 17.290304
57.68 -5.7307563 17.915459
62.692307 -5.7617283 18.008938
67.449997 -5.8620157 18.313322
73.074074 -5.4821167 16.664309
77.816666 -5.6979327 17.350874
82.95652 -5.7091026 17.471003
88.441444 -5.7101212 17.394888
92.978493 -5.6237302 17.739002
97.555557 -5.6721954 17.685474
102.76744 -5.6947341 18.298903
108.21739 -5.8272943 18.660059
112.8 -5.901093 18.751524
118.18182 -6.0641799 19.076782
122.5 -5.7878408 18.692329
127.83334 -6.1536107 19.361326
135 -6.079422 19.92742
138 -6.115664 19.564034
142.60001 -6.4544764 19.642853
150 -5.8079538 18.011461
165 -6.760035 18.6772
168 -6.47188 19.029409
177 -6.7565989 18.759382
211 -6.499496 18.271086
55 -2.3145819 17.205902
57.803032 -2.4092796 17.462891
62.659573 -2.2096224 17.619907
68.259262 -2.3358903 17.524059
73.301468 -2.1845472 16.42915
78.402214 -2.404958 16.608999
82.936043 -2.6041219 16.706259
88.14286 -2.6918139 17.086758
93.014877 -2.7763062 17.35054
97.848183 -2.6028066 17.689774
103.08046 -2.5101414 17.790714
107.70922 -2.387125 18.23403
112.93 -1.8187468 18.695807
118.16456 -1.5871425 18.847872
123.02381 -1.5916352 18.955517
127.59259 -1.4406295 18.673012
132.80952 -1.3619101 18.849953
138.41667 -1.0247973 19.25156
143.5 -1.7468696 19.48164
149 -1.8008808 18.796722
152.125 -0.8401475 19.304276
159.5 -0.42815602 19.699484
55 1.948701 16.334644
57.84 2.2455745 17.023054
62.611938 2.6440299 17.016542
68.282608 2.0974262 17.171658
73.416061 2.4174039 16.05851
78.528458 2.5088785 16.667629
83.024193 2.3284073 16.933357
88.022331 2.5010531 17.272675
92.939697 2.2749197 17.626566
97.734375 2.283293 17.853745
102.7347 2.2965317 18.105146
108.00565 1.8864831 18.453447
112.875 2.0829501 18.455622
117.57333 1.8438931 18.602383
122.5614 1.6015134 18.798065
127.63889 1.4229646 18.831036
132.52777 1.2973473 19.131315
138.35294 1.7938962 19.085516
143.35294 1.4677449 19.36899
147.75 1.2570881 19.388027
151.83333 1.2861782 19.381027
157.14285 1.1805066 19.330503
164 2.8123946 20.031136
168 1.484848 19.776741
55 5.6963863 17.587685
57.705883 5.5396399 17.290554
62.35294 5.5781975 17.455423
67.75 5.8130751 18.069302
73.777779 5.5028481 16.896206
78.75 5.5191798 16.591722
83.103447 5.5400629 17.321957
88.21875 5.5890574 18.074183
93.5 5.5268993 18.289221
98.35714 5.4448042 18.631603
102.85294 5.7340326 18.829994
108.3 5.682128 19.239101
113.8 5.8721366 19.640057
117 5.6140161 19.177895
122 6.4981203 19.547846
128.2 6.4432626 19.398869
133 6.2263403 18.759747
-6.8305292 55 17.008097
-15.392229 57.486427 15.091779
-13.571771 57.012424 15.340637
-7.814713 58.060608 17.521269
-15.973239 63 18.351606
-13.939261 62.166668 16.793768
-7.7966685 62.952381 17.517483
3.462255 62 15.694489
-16.357557 69.5 18.533758
-12.606113 67.333336 18.620464
-7.4697423 68.083336 18.019613
-2.0854659 70 16.452169
-17.423843 72 19.522896
-12.58683 75 17.647575
-7.1288347 73.071426 17.546658
-1.2629811 75 15.72802
-15.780546 78.75 17.752954
-12.219359 78 19.130266
-7.4007459 78 17.770594
-10.541181 85 18.600649
-6.7437797 83.333336 17.096085
-16.736229 87 18.691137
-12.324394 89 17.593533
-7.3721256 88.111115 17.520002
-1.5980489 88.400002 17.34585
-17.746 94 19.910784
-11.815556 93.666664 18.793516
-6.9772415 93.342857 17.688513
-2.5984879 93.480766 17.289118
0.33280766 93.333336 15.663724
-17.256453 98.545456 19.767353
-11.795869 98.433334 19.285576
-7.2029901 98.20755 17.760599
-2.9140909 98.04615 17.02173
0.50046319 98.5 15.852611
-16.277611 103.5 19.73098
-11.617781 102.97298 19.403889
-7.3631401 103.21769 17.48102
-2.7862575 103.04348 17.190144
1.3804697 103.23529 15.630743
-16.559547 107.66666 19.78623
-12.118558 107.57895 19.616276
-7.2392917 107.8421 17.59713
-2.8355017 108.11258 17.148552
1.3089452 107.9 15.554219
-16.569269 112.78571 19.660801
-12.115366 112.88235 19.311199
-7.1547422 112.85058 17.407139
-2.9303708 112.60714 17.154881
2.3579245 112.5 15.784024
-16.338617 118.375 19.583786
-11.969784 117.38889 19.214149
-7.2190781 117.5098 17.856993
-2.7707639 117.5102 16.87405
2.7617195 118 15.985275
-16.007303 123.25 19.478867
-12.342272 122.92308 19.68438
-7.2095265 122.46429 17.890942
-2.4591739 122.92308 16.816044
2.67133 123.4 16.307041
-15.840379 128.875 18.793856
-12.129749 128.25 18.162189
-7.4992447 127.91666 17.824673
-2.7659519 127.95238 17.080984
2.4590969 128.33333 15.654076
-15.265987 133.66667 18.820707
-13.111767 131.5 16.749401
-7.02105 133.2 17.473732
-2.1637132 133.42857 16.999483
-15.360026 137.33333 18.963099
-6.7630863 137.33333 17.473772
-2.6451714 137.53334 17.74637
-15.322607 143.75 17.812689
-14.43142 141 15.396144
-7.381103 144 17.734762
-2.7888367 143.28572 17.175341
4.2577882 144 15.047862
-15.45641 148.66667 19.100317
-13.991218 148.66667 17.203346
-7.1382523 147.44444 17.657207
-3.1295052 147.88889 17.212519
3.076005 146 15.200671
-15.519992 153 18.114525
-6.992527 151.25 18.400337
-3.0261104 152.16667 17.706388
2.5223179 153 16.047352
-15.212541 157.66667 17.980293
-13.257695 157 16.947496
-6.3585935 159.5 18.398624
-2.5964417 158.16667 17.297518
-15.791717 162.5 18.312698
-14.86611 163 16.517675
-6.9611354 163.5 16.672359
-2.0556176 164.33333 16.786257
3.193917 165 16.330761
-15.394702 168.39999 18.005795
-14.852249 169.33333 17.339497
-7.681272 168.25 18.122688
-2.2362165 167.75 17.457897
-15.415223 173 17.35038
-14.419447 174 15.664518
-7.8565369 175 17.495987
-2.8726506 174 16.944366
2.2586529 171 16.65167
-16.044018 178 18.414888
-14.181781 178.2 15.371043
-6.0373621 176 16.445061
-15.642433 183 17.866419
-14.346209 184 15.532641
-1.394549 181 15.474345
-15.760191 188.2 18.281551
-14.616629 187.75 16.725414
-8.2799168 187 17.964781
-1.7092969 189 15.517239
-15.766761 193 18.021185
-14.792006 192 16.322893
-7.3529954 193 17.017532
-15.304319 198.5 17.273214
-14.955171 198 16.503462
-7.5934429 198 17.410061
-8.657176 202 17.200304
-12.50842 206 15.781698
-7.1766863 209 17.005123
-4.1114502 206 19.788954
-15.987539 214 18.30233
-14.479475 212 15.69098
-7.5560164 212.33333 17.487654
-15.915361 217.5 18.255478
-14.827963 217 16.945654
-7.917624 216.66667 17.256224
-16.458736 224 19.008503
-6.1566491 227 15.265353
-7.5985565 233.66667 16.998446
-7.4290094 238.5 17.184736
-12.489491 244 15.724027
-8.5162354 242.5 18.531506
-7.8560119 248 17.840685
-16.242567 255 19.040384
-14.401308 254.97241 18.443281
-7.4860601 255 17.265131
-2.7587619 255 17.529556
4.0346088 255 15.103322
55 -6.868588 22.433172
57.784313 -6.4522462 22.390099
62.974998 -6.772975 22.335423
67.60714 -6.4378929 22.504484
73.242424 -6.9202518 22.818604
78.217392 -6.8853211 21.879614
83.400002 -7.0074134 22.785366
88.310349 -6.6317668 21.743668
93.400002 -6.3466592 21.903048
97.775002 -6.6085968 21.751513
102.66666 -6.8002453 22.110649
108 -6.4551539 21.941652
112.98077 -6.6484799 21.917572
117.9 -6.2478209 22.192434
122.60714 -6.8252635 21.68828
128.04347 -6.890667 21.955378
133.125 -6.9915433 23.116247
138.36 -6.6249022 22.09627
143.86667 -7.0968966 22.340145
147.31818 -6.8838801 22.340315
153.81818 -7.0935698 21.860249
157.92857 -7.6739311 23.535223
163.14285 -7.1679492 20.98999
169.125 -7.1218967 22.33498
172.14285 -6.9831424 21.258821
179 -7.8019996 23.152048
182 -7.5827055 23.350307
188 -8.4023685 23.484367
198 -5.5639114 22.331232
201 -7.0939131 20.904066
206 -6.035892 23.918016
213 -7.2451859 20.984596
55 -2.4463367 22.281303
58.060608 -2.8430409 22.220301
62.955555 -2.4515371 22.189016
68.235291 -2.4687345 22.051376
72.518517 -2.6125703 22.764614
77.896553 -2.1801994 22.869717
82.5 -2.6035926 21.156446
88.26667 -2.4750032 21.760035
92.927269 -2.3540914 22.232397
98.431816 -2.4817495 21.653313
102.94643 -2.5773201 21.830521
108.41177 -1.8445448 22.194193
113.33334 -2.203891 21.934616
117.66 -1.3349259 22.514097
123.27273 -1.737317 22.453697
128.16216 -1.4749635 22.087017
133.09677 -1.9416203 22.685776
137.2963 -1.9182394 22.665108
142.92308 -1.4210099 22.151783
147.85715 -2.1338098 22.871433
152.85715 -1.8080841 22.147249
157.75 -0.73186576 22.953793
162.66667 -1.8704883 23.143616
168.16667 -0.86509019 22.343775
171 -1.148715 23.277864
176 -0.66101998 22.832188
181 -2.023185 23.144236
195 -0.75330502 21.57815
212 -0.60695702 22.815344
223 -2.6176269 22.234982
55 2.0227404 21.752733
57.073769 2.0360863 21.351372
62.777779 2.7302635 21.423
68.204079 2.7577159 21.174892
72.689651 2.6323061 21.538469
77.928574 2.5622935 21.584372
83.307693 3.174222 21.037987
88.550003 3.1693215 21.170408
93.057968 3.0486405 21.495192
97.708336 3.0811822 20.771635
103.10638 3.009316 21.241497
108.33846 3.015887 20.768095
112.56716 2.7872593 21.187807
117.85185 2.7547832 20.888273
123.12281 3.184875 21.242157
127.975 1.9728119 21.164194
132.74074 2.0722835 20.733646
138.06383 1.840614 20.658958
143.03572 1.8051928 20.625082
148.20689 1.6170459 20.748503
153.10638 1.7638144 20.619249
158.07143 1.7604171 20.606516
163.2258 1.432014 20.692787
167.38889 2.0370319 20.708054
173.05556 1.8991424 20.585894
178.10001 1.686651 20.716696
182.60001 1.694083 20.691673
187.36842 1.5744916 20.772314
192.85715 1.6201388 20.752924
197.39999 1.8612648 20.660452
203.25 2.1364172 20.542315
211.33333 1.9049397 20.628637
218.66667 1.973308 20.61351
55 6.2978163 22.689079
57.357143 6.4355078 23.069201
63.037037 6.1870394 22.169584
68.08696 6.5174422 22.710217
73.307693 6.7517319 22.973629
78.300003 6.4862823 23.390041
82.764709 6.3115964 21.982708
88.333336 6.1492558 22.388994
92.449997 6.2386217 22.28886
98.296295 6.0090785 21.973127
102.58974 6.3967056 22.603277
108.64706 6.1496091 22.195229
113.43182 6.5147352 22.11426
117.97959 6.2333713 22.500677
123 6.4263062 21.518244
127.68965 6.3027649 22.369257
132.88889 6.3524823 22.22806
138.23077 6.4965906 22.744223
142 6.1363034 22.009962
148 7.102921 22.100885
153.8 6.0487037 22.705013
158.25 6.1468797 23.087255
161 6.8555031 23.868191
167 6.7382011 23.075468
171 7.768178 22.044117
179 7.6088381 21.876057
184.5 7.3840952 21.131166
186 7.5686479 21.800097
194 7.1845331 20.666618
206 7.5647531 21.92457
211 7.5018291 21.72979
-10.816017 55 21.737751
-7.4576702 55 22.204145
-17.796574 58.5 21.651981
-11.113121 57.599998 21.780003
-6.6416245 58.666668 22.07308
-4.4094162 57 21.346027
-18.287306 62.333332 22.454939
-11.354416 62 23.989086
-7.2855554 63 22.858343
-17.855614 67.75 21.843594
-5.6290421 68.25 21.569157
-6.9216909 72.875 21.875496
-17.910557 78 20.493904
-13.111629 79 20.256723
-7.6983218 78.333336 22.009094
-7.8897281 83 22.31909
-4.7120938 82 20.317125
-17.734108 88 21.668373
-12.745454 89.333336 23.115921
-7.1161609 87.454544 21.985779
-4.5706186 88 20.99564
-17.093681 92.666664 20.606562
-12.786386 93.222221 22.596268
-6.9002695 93.400002 22.405317
-3.9010515 94.166664 21.499289
-17.331108 98.333336 20.82346
-12.596627 98.204079 22.179108
-6.4110999 98.380951 21.841722
-3.7833974 97.755554 21.651398
-16.994799 103.5 20.482313
-12.290905 103.19697 21.72938
-7.3837318 102.82979 21.494057
-3.9153538 102.92857 21.724693
-16.821981 107.95454 20.399715
-12.317221 107.93243 21.828735
-7.4563966 108.06451 21.382509
-3.8119061 108.13889 21.401207
-17.485449 113.76923 20.348545
-12.477598 112.64286 21.680494
-7.4297071 113.25 21.453226
-3.7601573 112.4375 21.254259
-17.212223 117.6 20.641125
-12.354934 117.3871 21.664009
-7.4113231 117.89474 21.569168
-3.9713285 118.42857 20.984419
-16.464497 122.25 20.723095
-12.253792 122.55556 21.721422
-7.2634354 122.4 21.854218
-4.5166998 122.5 21.257393
-16.466249 127.42857 21.99387
-11.895159 127.70588 21.482502
-7.9014659 127.66666 21.795301
-4.4108014 128.83333 21.096251
-15.710999 133 21.069223
-12.196006 132.625 21.721422
-8.0489912 132.88889 21.572437
-4.2063289 133 20.398132
-16.566666 138.33333 21.475454
-13.37529 136.8 22.398838
-8.2405195 137.75 22.566807
-4.4861259 138.5 20.774521
-15.437696 143 20.882202
-13.586785 143.22223 21.555517
-7.2640214 143.39999 21.477673
-15.657325 150 20.203594
-12.47312 147.5 21.541664
-6.9065185 147.39999 22.018814
-17.398445 153.5 22.11043
-13.953236 152.5 22.270025
-6.6283913 152.60001 21.679499
-4.2956238 151 20.734783
-17.928761 157 21.349388
-13.653398 158 21.936953
-8.1982498 158.25 21.406992
-7.6365552 162.71428 21.877066
-16.744738 170 21.793209
-13.010653 168 22.667149
-6.4826884 167.83333 22.022932
-3.0886869 167 21.15045
-15.303087 171.5 22.81023
-12.212533 172 21.555151
-7.9220381 173 22.254992
-8.207243 178.8 21.295534
-15.489581 184 22.257639
-10.411329 184 23.725798
-8.0002356 182.66667 21.657372
-19.702599 190 24.41312
-7.4413719 187.28572 21.873308
-16.18531 194 23.568068
-14.866618 195 22.089918
-8.0688839 193.25 21.705959
-14.786566 198 20.838474
-6.9257889 198 21.89954
-16.940399 201.5 21.423576
-8.0515375 202 21.774475
-18.254017 210 23.649441
-6.7259841 207.66667 21.594889
-16.612617 213 21.027184
-11.455268 213 22.558992
-8.3391323 212.5 22.64661
-11.2508 219 22.099909
-9.1832705 217 20.922571
-11.626863 225 21.335648
-8.5628834 222.33333 22.250488
-16.233503 226 22.136623
-7.5334592 228 21.85078
-15.432942 239 22.175501
-7.7015581 238.25 21.851883
-15.905817 242 22.128786
-6.8538136 242.66667 22.052675
-8.173399 248 21.974018
-16.736925 255 21.748613
-13.413323 255 21.373457
-7.7894073 254.93478 21.958241
55 -7.419085 28.391411
57.820515 -7.1768885 27.40036
62.766666 -7.3142915 27.356981
67.192307 -6.8879056 27.573221
73 -6.4966321 27.891441
78.230766 -6.6367474 27.521423
83.199997 -6.9895315 27.104101
88.272728 -6.571877 27.977089
91 -5.4017744 29.267262
98.85714 -6.8259096 26.529453
102.07692 -7.6504612 25.767376
108 -6.0096498 26.394526
113.3913 -6.3868833 26.778177
117.4 -6.6020708 27.705372
123.64286 -5.9489341 26.664825
128.14285 -6.461132 27.039606
133.2 -6.3745379 27.591114
137.85715 -6.0456953 27.432566
144 -6.1677318 27.13167
147.85715 -7.4291959 27.397732
152.8 -6.6556807 27.603664
162 -7.1334763 25.215477
168.5 -8.364255 27.474377
171.66667 -7.5154061 26.629404
180 -8.2849207 26.896627
194 -7.1082821 26.148834
229 -8.6101685 29.579628
55 -2.210531 27.700052
57.5625 -2.9224875 27.427748
62.52 -1.9873244 27.448254
67.900002 -2.4176788 28.041798
73.421051 -2.53069 27.301233
77.947365 -2.6654274 28.034733
82.818184 -2.1140475 28.162733
87.333336 -1.9394852 27.879108
93.14286 -2.6048996 28.026636
99 -2.2551272 26.845657
103.4 -1.7389838 27.073883
108.16666 -2.7464964 27.768072
112.63636 -3.1421654 28.880634
118 -2.480798 28.01162
122.46667 -3.2229972 27.705055
127.94118 -4.0685844 28.784668
133.71428 -3.0011051 28.808451
137.76923 -2.5699415 28.431999
143.73334 -3.6003058 28.717791
148.33333 -3.5123127 28.617754
152.66667 -2.6718848 28.236351
157.5 -2.6492381 29.809948
162.5 -3.515142 28.97731
168 -2.9170744 27.857819
173 -1.942287 28.555456
181 -1.000635 27.869371
188.5 -1.8771656 28.470486
55 2.5775595 28.564379
57.304348 2.4070301 28.355726
62.76923 1.7905558 28.036339
68 2.9750571 28.764944
73.166664 1.8252244 28.325636
79.666664 0.32456732 26.524385
82.599998 2.7941394 28.93635
88.166664 1.6290617 29.43647
91 2.7813187 29.768044
100 0.021619 25.9154
104 2.3891745 26.873558
108.5 2.7251093 26.838249
114.25 3.5167544 29.574028
118.5 2.7542062 27.219095
122 4.7664981 26.772024
128.5 2.9697328 28.272396
133.66667 0.72403932 28.136251
139 2.6728125 26.230606
143.85715 4.2169561 29.905767
147.5 0.24676502 27.42345
153 0.079462998 30.054056
158.2 4.3425245 29.371277
162 4.9990692 26.282173
173.53334 4.0605869 29.518742
184 0.66850001 28.363672
188.09091 3.9853926 29.860231
200 0.56764698 28.231091
203.36 4.3537755 29.819355
218.60655 4.3124838 29.93775
233.64894 4.2838111 29.930792
248.41667 4.2995286 29.9366
255 4.287611 29.963594
55 7.3218827 28.205708
57.409637 7.2264252 27.984173
62.28846 7.62848 27.760387
67.720001 7.5906334 27.681185
73.0625 6.8355098 26.632587
78.217392 7.48564 27.543287
82.928574 7.0833998 27.556437
87.777779 7.6536961 26.627552
94 6.2681108 26.592085
98.800003 6.3853083 26.521856
103.1 7.5365281 27.666294
108 7.1620445 27.194056
112.5 7.1992803 27.315771
119.22727 7.1761017 27.198906
122.13333 6.9729161 27.637413
127.57143 7.794538 27.421322
133 7.1587672 27.368736
138.2 8.0921564 27.856451
144.375 7.8358936 27.311199
147.23529 6.9585586 27.186628
151 9.7407455 28.646748
159.375 7.3846478 27.252451
162 7.1968303 27.532171
166 8.6350117 26.206539
173.11111 7.1999087 27.588213
185 7.5942597 27.130451
188 6.5277534 27.762686
199.5 7.0274372 27.42988
201 7.143858 27.530308
210 8.6710606 27.996258
213.57143 7.0038061 27.542681
224.5 7.5284052 27.214352
229 6.3644972 27.379831
238 7.4029112 27.281433
241 6.8497543 27.564301
250 7.8314142 27.110807
255 7.2825241 27.474966
55 10.087717 29.495039
57.5 10.119492 29.642246
74 10.294602 29.348747
153 10.192172 29.750443
-19.806377 65 25.716415
-18.796659 255 25.298403
55 -10.698488 34.0662
58.07143 -10.849675 33.193134
62.384617 -10.729522 33.040371
68.14286 -10.742566 32.760471
73.166664 -10.772071 33.649952
77.5 -10.712729 33.34668
83.444443 -10.995019 33.333229
88.625 -11.002339 33.367138
93.611115 -11.11423 33.071701
98.071426 -11.085843 33.21418
103.06579 -11.053952 33.264881
107.10714 -10.800109 33.844654
113.5 -11.335467 32.728168
117 -10.590997 34.350491
126 -10.461744 33.63612
133 -11.357871 32.67049
137.7317 -10.724413 33.92873
141.14285 -10.371622 34.657978
153 -11.30086 32.851742
157.60001 -10.551824 33.94611
162.16667 -10.432334 34.567455
169.60001 -11.578333 32.246391
173.05556 -11.24454 32.918682
178.45454 -10.672133 33.863121
184 -10.423072 34.774113
188.84616 -11.457358 32.516548
193.53847 -11.211248 33.010323
197.93103 -10.845915 33.706226
203 -10.59235 34.410496
208 -11.030403 33.436367
212.58824 -11.297114 32.862392
218.26666 -10.897768 33.663006
222.89999 -10.622753 34.192875
227.5 -10.63431 34.318935
233.75 -11.215581 33.05471
238.16667 -10.751437 33.671696
242.85715 -10.59684 34.19273
248 -10.796844 33.660069
254.33333 -11.061124 33.410988
55 -7.089582 32.736355
57.886364 -7.2896161 32.580742
62.666668 -7.5392427 32.429806
67.684212 -7.6036162 32.432831
73.027023 -7.4065199 32.38636
77.91304 -7.00352 32.497982
82.866669 -7.0864029 32.911114
87.6875 -7.9312797 33.365688
93.083336 -7.6369114 33.715973
97.709679 -7.7029777 33.554943
102.9 -7.5037718 33.692024
106.66666 -7.7804217 33.69294
112.78571 -7.4128447 33.390362
118.28571 -7.4169531 33.500191
123 -6.1787639 32.203098
129.23077 -7.608151 32.917351
132.92799 -6.8906817 34.010063
137.40776 -7.6229486 34.377075
142.875 -7.6227055 33.288605
149.31708 -8.4143229 32.868004
152.81081 -6.1251512 34.375153
158.09677 -7.4766221 34.666729
162.125 -8.1475697 34.466995
168.58586 -7.7705526 33.157658
172.96666 -6.3095303 34.445747
178.14706 -7.4495497 34.495163
183.34483 -8.3296204 33.432682
188.29204 -7.4612212 33.405418
192.8662 -5.9843493 34.585743
197.65909 -7.0320268 34.736877
203.77142 -8.4205704 33.154453
208.90938 -5.7034483 34.151299
212.78743 -5.9804735 34.601368
217.71202 -6.9623561 34.755646
222.42857 -8.1755247 33.87693
228.72377 -5.5213614 34.31171
232.74496 -6.0125303 34.587746
237.43878 -6.8571329 34.737892
242.15555 -8.0578442 34.050121
248.29146 -5.5234122 34.354244
253.91748 -6.437983 34.462894
55 -3.2486815 33.532524
56.992126 -3.4814718 33.401077
63.452053 -3.5855236 33.66309
67.023254 -3.203069 33.725952
72.75 -2.1694098 32.652603
78.148148 -2.6239486 33.289936
82.349998 -2.8240259 32.987274
87.888885 -3.0811026 32.869415
93.300003 -2.3214514 33.02322
98.375 -3.2861083 33.553154
102.77778 -3.0556736 33.192688
107.75 -2.454468 33.049076
112.2 -3.6238668 32.974655
118.83334 -2.5247529 31.158968
123.5814 -1.5192772 32.966286
128.75142 -3.5924327 33.927048
131.59322 -4.0994053 33.826054
138.44 -0.99451846 32.503719
142.991 -2.1675911 33.336216
148.90404 -4.0833302 34.111053
153.5625 -1.3358966 32.410305
157.99265 -1.3811802 32.871719
162.91347 -2.9538743 33.576328
168.2251 -4.0870743 34.137699
173.07272 -0.99722254 32.539318
177.9375 -2.1907418 33.16283
182.92754 -3.4460723 33.785439
187.94833 -2.7280252 33.434292
193.10582 -1.5771911 32.970325
198.15839 -2.8080721 33.480904
203.72621 -2.5325346 33.347267
207.64677 -2.2507968 33.338158
213.09102 -2.1595786 33.239937
218.17287 -2.7209413 33.43837
223.19452 -2.0332351 33.182644
227.59904 -2.3575866 33.400433
232.95465 -2.5651245 33.45203
237.91414 -1.8869325 33.12706
242.84378 -2.4303083 33.423775
247.44444 -2.6212814 33.510647
254.22238 -2.0847685 33.264389
55 3.07148 30.440538
57.372093 3.158268 30.836309
62.346153 3.3777251 31.589043
68.139534 2.8187828 31.88859
73.205132 2.7056592 32.026646
77.800003 2.6782568 32.380211
82.5 2.852241 31.962515
87.949997 2.850172 31.437069
93.59375 3.0307803 31.658821
97.625 2.7296343 31.788307
102.19512 4.1422577 31.596806
108.75 3.4126494 31.618273
114.78912 4.4356756 30.623472
117.74274 4.1424813 31.564039
121.34722 2.640147 32.698524
129.76562 4.2596092 30.58437
132.64685 3.506289 31.353741
136.64044 1.9068227 32.338703
144.20512 3.6171265 30.862772
148.05229 2.7056847 31.318098
152.25438 1.2148632 32.197849
159.21428 3.6196144 30.740557
163.31305 2.9453914 31.259956
167.63829 1.1741413 31.970041
173.7619 3.1154621 31.137461
178.21213 2.9872487 31.160975
183.13 1.2701437 31.780787
187.50603 1.4496928 31.855871
193 3.2029121 31.06506
198.369 1.4692777 31.73085
203.01724 1.3984047 31.822847
208.22353 3.1487346 31.11166
213.10001 1.8525699 31.610384
218.15562 1.3515773 31.800785
223.09642 3.0568266 31.173092
227.92314 2.1217108 31.517185
233.24188 1.631703 31.628939
237.80382 2.8205025 31.285828
242.70038 2.3829401 31.45505
248.1006 2.0583951 31.495089
253.97311 2.6427667 31.333315
55 8.1648159 32.715477
57.311111 7.2358508 32.73188
62.842106 5.564569 32.429764
67.615387 5.6616907 33.283039
73.5625 5.7894998 33.325607
77.625 5.5172505 32.464424
