# .PCD v0.7 - Point Cloud Data file format
VERSION 0.7
FIELDS x y z
SIZE 4 4 4
TYPE F F F
COUNT 1 1 1
WIDTH 1576
HEIGHT 1
VIEWPOINT 0 0 0 1 0 0 0
POINTS 1576
DATA ascii
55.534996 -77.624107 262.29919
55.060612 -77.673096 257.66324
54.772381 -77.229683 253.48006
55.943447 -76.39196 248.62064
51.081532 -81.764748 261.92517
50.602104 -80.86161 257.63818
50.385235 -80.569382 254.08498
50.323036 -80.529526 249.21526
47.876659 -84.567955 261.90872
46.946182 -83.835091 257.41544
46.775234 -83.59169 254.18596
43.935703 -87.364822 262.25574
42.843575 -86.393646 257.4212
42.910881 -86.670403 254.31573
40.001644 -90.258316 262.61981
38.954021 -89.208923 257.84064
38.78566 -89.63443 254.61154
35.864773 -93.526733 263.01999
34.747395 -92.317932 258.34787
34.194324 -92.899399 255.02864
31.431562 -96.175812 262.69531
30.606836 -95.341866 258.75037
29.824558 -96.219147 253.48076
28.231739 -99.218506 263.57938
27.021488 -98.105888 258.34332
26.82494 -98.883865 255.33804
23.209101 -101.84373 263.50165
22.418886 -100.47927 259.25888
22.243151 -101.65266 254.81421
18.732529 -104.24033 263.48853
17.926054 -103.50347 259.43091
17.449898 -103.73174 255.64992
14.865165 -107.23824 263.88654
13.903214 -106.28102 259.92993
13.601815 -106.38961 255.90384
14.256323 -106.21771 251.7525
10.951481 -109.88183 264.14035
9.8093386 -109.14639 260.17322
9.9134407 -109.22044 256.04346
10.165844 -110.06594 251.88684
6.8613386 -112.58515 264.40671
6.0441427 -111.94234 260.43466
5.9033175 -111.93525 256.43347
5.9762659 -112.99814 252.10338
3.6239746 -115.24902 265.24115
1.8613286 -114.43617 260.79242
1.9103854 -114.71792 256.82883
2.2763247 -116.14664 252.32291
-0.24372971 -119.34038 265.00793
-1.975338 -117.37523 261.06888
-1.6332049 -117.74716 256.15594
-1.8354273 -118.92743 252.58322
-5.2008886 -123.61939 264.96295
-5.9545474 -120.6382 260.48434
-5.8115721 -121.66813 255.25076
-6.0613832 -122.32163 252.8493
-7.8411412 -126.70161 264.63782
-8.8829527 -127.18498 261.78171
-10.13242 -124.40928 255.0517
-9.827836 -125.2326 252.95068
-11.987158 -129.17944 265.18594
-12.441013 -129.46959 260.18951
-14.239736 -130.47002 258.67725
-13.784324 -127.65837 253.35086
-16.289967 -131.90855 266.11844
-16.628538 -131.86424 261.06882
-16.625313 -132.02045 257.91544
-17.835032 -129.96947 254.27847
-17.965313 -136.22293 269.5918
-20.764534 -134.47876 266.32071
-21.218039 -134.8365 261.82916
-21.114298 -134.5502 257.38095
-22.24687 -135.25758 253.63869
-24.740191 -136.98233 266.51169
-25.391979 -137.45587 262.91605
-25.234961 -137.06139 257.72232
-27.52718 -138.15935 254.53152
-29.136877 -139.57202 266.98083
-28.953564 -140.54984 262.55508
-29.720203 -139.74471 258.70413
-28.328001 -138.78719 254.22183
-33.071529 -143.10132 267.97113
-32.905933 -143.64047 262.2059
-33.645424 -142.12636 258.80814
-36.930344 -146.65309 267.46255
-37.491673 -145.45911 263.23114
-36.326202 -146.44304 259.57983
-39.883713 -150.53969 268.00873
-42.440716 -148.08427 263.20822
-41.812599 -148.64357 259.29205
-42.218193 -154.62717 271.43655
-43.025749 -153.74242 267.1763
-45.141186 -152.31561 263.78287
-46.409313 -151.10956 260.00769
-48.204876 -156.13634 268.02454
-48.226097 -156.16879 263.71051
-49.25742 -154.93367 259.41556
-50.034992 -156.46587 255.3869
-50.505867 -158.21104 266.43362
-52.338673 -159.46213 262.65921
-53.392117 -158.1757 258.68365
-52.679554 -158.12141 255.53033
-54.191185 -163.64096 272.08286
-56.592415 -164.11795 270.16168
-56.111561 -161.97696 263.45673
-56.795311 -162.41061 260.49002
-57.700027 -161.21684 256.02121
-59.480984 -165.98091 268.61865
-60.397411 -164.00496 264.6825
-61.520172 -165.48891 260.19891
-61.132477 -163.29759 256.26526
-62.661682 -167.89967 267.45023
-64.90287 -168.31693 265.37527
-63.652702 -167.13182 259.78296
-66.70327 -173.09499 272.83359
-67.936432 -173.58083 271.39203
-68.572029 -170.63165 265.05103
-70.155884 -171.16255 261.55914
-71.330673 -169.62247 257.55966
-69.829926 -174.78673 270.46051
-72.431335 -173.74254 264.24045
-71.397293 -172.71857 259.12787
-77.124817 -178.8739 269.97531
-76.120193 -176.65019 264.3237
-76.864906 -177.27777 262.42593
-79.093422 -182.39578 273.38077
-79.21138 -181.07404 270.25415
-80.605438 -179.85326 266.21164
-80.745842 -180.51347 261.14722
-83.569801 -183.06053 270.84921
-84.565582 -183.40285 266.43716
-83.755478 -182.58226 260.45432
-88.473038 -183.11427 269.47391
-88.720718 -185.8367 267.30441
-91.337997 -191.69202 274.28787
-93.44136 -190.65178 271.43082
-94.743492 -188.85098 266.68188
-94.180977 -190.48022 262.07523
101.58298 -21.868675 202.81978
101.36067 -21.956499 199.96132
100.89522 -21.510035 195.69714
99.628418 -20.362038 189.66417
99.064293 -20.327999 184.57297
98.480545 -19.392334 179.76022
97.704361 -18.759735 174.87494
96.961708 -18.089661 170.62067
96.343704 -17.627413 165.86786
95.281342 -16.673914 160.64209
94.579697 -16.23027 155.6373
93.761681 -15.386084 151.39551
92.868195 -14.431774 146.09178
91.58857 -13.440417 141.56946
91.397057 -13.321793 136.38452
90.022255 -12.09492 131.14032
89.631065 -11.039258 127.16623
88.329208 -10.603954 122.46143
86.898857 -10.615997 118.81012
85.783043 -9.2469692 108.9567
80.414124 -5.3314552 74.592712
99.733131 -23.843311 202.87157
99.502716 -23.693497 200.18057
98.274529 -23.460621 195.20921
97.846771 -22.765152 190.07785
97.099197 -22.817873 184.95517
96.157845 -22.19313 179.95468
95.562836 -21.606184 174.97891
94.614838 -20.886532 170.40335
93.901955 -20.18874 165.69926
92.902565 -19.468067 160.789
92.053749 -18.752438 156.27139
91.120216 -17.932171 151.01347
90.459183 -17.941353 146.33527
89.490257 -16.692726 141.52029
88.298676 -15.472816 137.03424
87.630898 -15.233846 131.64667
86.276421 -14.511251 126.69569
84.87532 -11.536133 115.95782
82.303589 -12.423532 112.68524
83.556625 -10.552731 107.10892
95.791145 -27.044882 203.10228
95.447556 -26.49958 200.46446
94.270454 -25.830891 195.69736
93.64389 -25.463017 190.05269
93.467484 -25.721355 185.03986
92.540855 -25.046188 180.01538
91.511833 -24.449942 175.2691
90.682648 -23.59853 170.60803
89.77459 -22.819954 165.96619
88.600677 -22.045546 161.20755
87.584869 -21.506258 156.36801
86.576248 -20.660145 151.43294
85.729774 -20.034502 146.70224
84.616074 -19.458511 142.12198
83.448776 -18.798395 136.98886
82.679169 -18.349876 131.77737
81.894279 -17.419157 126.74045
81.4646 -16.676203 122.58295
80.545624 -16.148144 117.30305
79.302261 -15.923601 112.68748
78.950508 -14.962185 107.17116
77.522537 -15.30628 103.23349
77.154648 -13.735638 96.769638
75.819328 -13.04454 91.709961
74.920364 -13.370768 88.753601
74.56414 -11.630983 81.883575
72.935944 -10.168169 73.140198
73.140121 -8.3067379 65.178375
91.224617 -27.70735 203.73405
91.032013 -27.527872 201.48041
90.457253 -27.271488 196.26244
89.677422 -26.483593 190.83234
89.460709 -26.522402 186.18219
89.606186 -26.364899 180.40448
88.439026 -25.716782 175.40662
87.838211 -25.110325 170.45805
87.01973 -24.386364 165.83716
86.206398 -23.832966 161.54893
84.840683 -22.76462 156.46271
84.505997 -22.442097 151.55479
83.190529 -21.37751 147.24615
82.207298 -20.549206 141.41904
81.186646 -19.939133 136.41827
80.626587 -19.191904 132.79791
79.65435 -18.480953 127.1499
78.71286 -18.071123 121.33821
78.2453 -17.287453 117.69171
77.35997 -16.577581 112.88516
76.285522 -16.313101 107.2356
75.805283 -15.499197 102.7814
75.025223 -14.972467 98.573578
74.096016 -14.559652 92.985962
73.357727 -13.707365 88.329529
72.612206 -13.491253 84.585434
71.604752 -12.687611 77.631989
70.806503 -12.062914 72.90538
70.336609 -11.209436 69.004288
69.292892 -10.597467 62.672501
68.695305 -10.261642 59.01239
68.089485 -9.5124722 54.610413
66.975449 -8.533535 47.257797
65.934189 -7.9046898 40.871048
51.840897 -74.705818 256.62256
47.564175 -77.879211 256.91638
39.633064 -83.977097 257.09866
37.182438 -85.68322 257.49017
31.222338 -90.941795 259.12527
24.73951 -95.138496 258.64517
19.84199 -98.785858 258.36154
20.414253 -97.607414 256.73975
15.95422 -101.79657 258.82251
16.179634 -100.93199 257.10779
12.335436 -104.63547 259.37723
12.29342 -103.88156 257.21912
8.4967299 -107.50197 259.39728
8.5824108 -106.83021 257.58463
4.7942724 -110.26765 259.6673
4.4023032 -109.93928 257.60547
0.86112446 -113.08775 259.63724
0.66790342 -112.74377 258.09695
-3.3638387 -116.37221 259.93216
-3.294611 -115.80652 258.30377
-6.0297022 -118.59372 260.496
-7.2810841 -118.63143 258.83966
-11.845281 -122.00161 258.86041
-15.16343 -124.25136 258.89642
-27.8237 -135.37454 263.04227
-38.127171 -143.24741 264.01743
-49.414513 -151.55467 264.11987
-52.966255 -153.77544 260.90881
-54.581886 -154.80458 262.70438
-85.780891 -178.13957 264.4942
99.228493 -17.317574 203.73085
98.913559 -17.199402 200.59903
98.060341 -16.506283 195.64087
97.336594 -15.793426 190.91101
96.442711 -15.036722 186.00882
96.146706 -14.631169 181.75232
95.29306 -14.188629 175.58881
94.565613 -14.411568 171.24716
93.771873 -13.073746 165.65974
92.42305 -12.022421 161.47346
92.743774 -12.240779 156.37019
91.700623 -11.033381 151.61359
91.051132 -10.805074 146.78214
90.21434 -10.175445 141.7858
89.39637 -9.8733912 137.14972
88.287994 -8.6632481 131.98541
87.59877 -8.3918152 127.42197
87.03685 -7.7909069 121.93535
85.66684 -7.4283562 117.55357
85.013077 -6.3319435 112.39526
83.90406 -5.8887234 107.39247
83.3965 -5.6939869 102.99512
82.055344 -4.3963242 97.613907
81.344482 -3.9607048 93.159409
80.214149 -3.3360558 88.038071
79.790344 -2.9438229 83.943558
79.246231 -2.2757645 77.815262
78.343002 -1.303257 74.100098
77.489563 -1.1648617 68.804871
76.692749 -0.12983322 63.972946
76.132576 0.10781288 58.075928
75.902351 0.83888626 55.651489
74.79277 1.3394623 49.26004
72.843307 2.382555 45.102432
73.184357 2.5320663 38.952652
72.542786 2.6063728 33.456406
71.625 3.6251812 29.135239
96.626495 -20.397417 203.76753
96.113701 -19.909338 201.07002
95.17038 -19.616131 196.20224
94.503761 -18.823975 191.05885
93.46228 -17.944874 186.12669
93.043724 -17.151531 181.37155
91.987045 -17.823759 176.03665
91.641281 -17.130447 171.17149
90.952248 -16.39155 166.37508
90.176109 -15.69047 162.01003
89.768173 -15.205727 156.7299
88.792488 -14.291817 151.52419
88.462029 -13.751282 147.2359
87.373962 -12.652693 142.03506
87.09021 -12.087435 137.69891
85.703407 -11.211029 132.31021
85.134186 -10.539773 127.48763
84.420547 -9.6458206 122.26205
83.514191 -9.5336418 117.70636
82.782967 -8.710165 112.3007
82.394577 -7.5368176 107.77295
81.309837 -7.5354366 102.69028
80.476707 -5.7503242 98.435287
80.176201 -6.3688107 92.798431
79.184036 -5.1699524 88.561371
78.611343 -5.2735653 83.372803
77.659988 -2.9958019 78.460159
76.405098 -2.6317768 73.501709
76.320885 -3.8432655 68.614105
73.716103 -2.8959789 63.290192
74.643707 -1.2897167 58.31041
74.36731 -1.8057919 53.535889
70.870972 -0.52935028 45.061142
68.372116 3.664957 25.570114
68.925194 2.2639637 20.220901
92.704285 -23.601295 203.99489
92.230217 -23.339655 201.22174
91.293915 -22.292116 196.26848
90.308701 -21.850555 191.62027
89.478233 -20.820625 186.13585
88.888733 -20.771088 181.38647
89.324699 -20.662464 176.51999
87.825584 -20.072456 171.88625
86.846916 -19.085413 166.75549
86.121178 -18.483662 162.24336
85.043945 -17.750565 157.71216
84.30925 -17.615734 151.63055
83.578911 -16.741243 147.32407
82.239067 -15.971711 142.21561
81.895622 -16.040829 137.91325
80.874222 -15.065795 132.09346
80.248329 -14.376646 127.88814
79.573563 -14.536879 122.82547
78.500717 -14.645758 116.99641
77.776138 -13.175245 112.96054
77.103043 -13.777737 108.74701
76.048264 -13.220022 101.68752
75.485939 -11.947245 98.415359
74.738426 -12.526245 93.70668
73.941124 -10.988157 87.458664
73.223679 -10.589893 85.019363
72.603821 -11.044373 79.201691
71.61515 -8.1986713 73.241806
70.955605 -6.941143 63.643677
67.284256 -3.3581963 43.242966
65.516663 -3.6865883 37.364334
90.465927 -26.418032 204.00645
90.660652 -26.377645 202.1545
88.850822 -26.287128 195.93736
88.84243 -25.585318 191.92587
87.387909 -25.521931 186.92856
86.497597 -23.449303 174.74629
84.971169 -21.871038 173.30446
85.709526 -22.512856 167.50768
84.80442 -21.474586 160.63914
83.223991 -19.274391 156.05296
83.822258 -20.657959 153.64285
82.599594 -19.49387 145.64178
80.899445 -17.443954 142.8761
81.480453 -18.744299 138.72351
80.36705 -18.036085 131.50826
79.545334 -17.202511 125.28165
78.79686 -16.918215 123.73369
78.243309 -16.287689 117.44104
77.260757 -15.552576 110.83948
76.95755 -15.322685 109.60391
76.095192 -14.653526 103.49985
75.036705 -13.829084 96.527725
74.61145 -13.406403 94.402496
73.571381 -12.588612 87.630508
71.735565 -11.586761 83.348358
72.345131 -11.767797 80.1745
71.222794 -11.001402 73.161682
70.153877 -10.31522 66.549515
70.006699 -9.8385124 64.97345
68.976669 -9.4065437 58.968979
67.881241 -8.6192017 52.032135
67.805206 -8.1095257 50.746155
66.761719 -7.7830353 44.833115
98.019569 -13.541056 204.37093
97.655701 -13.142645 202.25174
96.266632 -13.102691 195.94904
95.053825 -13.825726 191.15292
94.449768 -13.309314 186.71016
93.928146 -12.355201 182.45676
93.647141 -10.590759 176.2106
93.160721 -8.1276836 171.12584
92.218605 -8.6592073 167.24576
91.616745 -8.020257 161.55872
90.664932 -8.7615242 158.39413
90.872398 -6.1366215 150.50461
89.790092 -5.0810051 147.86023
87.542976 -3.8815432 144.03168
88.233597 -4.7727194 136.07727
87.286797 -3.131299 132.87286
85.107529 -2.1520367 128.53104
86.240997 -2.5942097 122.0237
84.849747 -1.3034954 118.37497
82.824104 -0.69463539 112.84937
83.207031 -0.47609711 108.36893
82.249359 -2.1524487 103.73154
81.278259 -0.36465645 98.746384
81.528755 0.71738625 93.180832
79.970474 0.71327019 87.868912
79.497864 2.0704651 83.886963
78.799026 2.3907318 78.664429
77.74691 4.1712456 73.880234
76.921036 4.524044 68.434708
76.259117 5.3076992 64.459076
75.448578 5.7445259 59.463394
74.890617 6.4773979 53.969864
73.994049 7.0324345 50.116455
73.005539 7.7692051 44.108063
72.510086 8.1268101 39.541687
71.195297 8.9990082 34.833298
70.805344 9.4255753 30.466385
69.822296 10.107666 25.096024
69.042343 10.715952 20.116364
67.600937 11.49733 15.530426
66.9963 12.153862 8.7837677
93.989166 -16.393869 204.65715
92.881264 -16.132675 201.88622
92.278633 -15.723258 197.11911
93.283836 -14.620729 191.24017
92.95668 -14.058669 187.08742
91.203011 -13.640238 182.68182
89.761787 -13.109738 176.93094
89.417007 -12.255904 172.13202
89.213257 -12.3997 166.64342
89.25148 -11.678119 161.26437
87.571609 -11.056318 158.52481
85.038071 -11.423919 152.20874
85.71859 -10.008625 147.90695
83.745186 -10.17796 142.34689
84.669098 -9.0875902 137.98114
82.34626 -7.8465691 133.09854
82.105278 -7.9406338 127.60027
81.416382 -7.2996655 122.83987
79.065643 -6.8401756 118.61316
80.202576 -5.9021568 113.01128
79.803802 -5.7818012 107.55066
79.242844 -4.8667374 103.11061
79.368103 -3.8343868 97.063629
79.048828 -3.5559635 94.210693
77.589584 -2.7695446 88.714645
77.401207 -2.302309 84.040237
75.906479 -1.5808773 79.47995
75.810349 -1.0043736 72.769928
74.677574 -0.69282532 68.907166
74.224716 0.21204185 62.631699
72.402939 1.2589169 60.662689
67.911095 3.8645782 50.124054
69.986435 3.3394661 37.508957
89.335922 -18.157927 205.17061
88.763466 -18.70952 201.80524
88.137627 -18.556738 196.64714
87.322754 -17.649393 192.56485
86.937408 -17.024021 187.38029
85.557571 -16.922119 182.30663
85.016914 -15.144544 177.30496
84.157417 -15.901917 174.02768
83.175133 -14.792757 168.44376
83.233521 -13.485166 162.74542
81.696396 -13.755085 156.95116
81.695572 -13.02859 153.04672
80.747398 -10.826909 148.00299
79.331848 -11.650624 143.24002
79.003143 -10.654968 138.80765
78.710403 -9.0798759 133.94171
76.868881 -9.2437744 129.70782
76.403641 -9.4900208 123.5343
76.828857 -7.6903839 120.29131
74.050774 -8.4322567 114.34578
73.792328 -6.4757023 108.32439
73.407364 -5.9327641 103.85526
72.696945 -6.3979282 100.125
72.727661 -5.0374718 93.149323
68.363029 -3.5491962 74.644135
67.723396 0.67076683 63.01944
83.583237 -21.56114 205.65913
83.432869 -21.535896 203.50366
84.444763 -20.757513 198.32655
84.825546 -19.846935 191.78561
82.203102 -18.779919 188.73654
83.120102 -18.227837 181.87555
82.434654 -18.36113 178.12289
79.622803 -17.189255 173.16869
77.600441 -16.963329 169.0945
79.801041 -14.853403 163.22942
79.677048 -16.197075 158.13806
79.607246 -14.847806 154.08841
78.083969 -14.05674 147.54132
74.007675 -14.20163 144.96355
76.56987 -12.626922 138.52151
76.606369 -13.090041 132.14203
71.392105 -12.474277 129.80901
75.271896 -12.030075 122.48947
69.35894 -12.442823 117.24615
68.820618 -10.841181 114.79935
71.603455 -8.7224731 108.67947
67.044647 -10.641518 102.53555
66.619644 -8.9736691 99.367722
66.872055 -7.555891 96.817017
64.803825 -8.9224911 87.80368
64.081726 -7.3382263 84.453903
64.538696 -5.9026814 81.464539
61.704769 -5.7251186 69.733673
61.75153 -4.2309628 66.573929
59.404648 -3.9395618 54.71138
59.25613 -2.5799274 51.501831
59.413368 -1.335062 47.767807
57.087654 -2.2778912 39.88443
56.792641 -1.0080128 36.772766
57.02467 0.30047989 32.978653
54.777466 -0.65919685 25.194382
54.381611 0.57187462 22.061737
54.548542 2.043232 17.640442
52.415367 1.643095 9.7054291
81.45459 -21.265343 201.94957
72.50412 -14.532206 145.04117
70.512421 -13.047857 130.24243
65.646667 -9.2380981 99.52417
63.451996 -7.6067257 84.604736
60.716393 -5.3884811 68.480988
60.412296 -5.2719193 67.523193
58.676674 -3.9246044 54.269623
58.201004 -3.5013809 52.607574
56.529743 -2.3264103 39.792557
55.880672 -1.7255917 37.58815
54.295677 -0.6215477 25.036072
53.604702 0.012464523 22.614853
51.813721 1.3291245 9.7710876
91.95607 -9.5676384 204.77132
91.955315 -9.1018667 198.71254
90.965714 -8.3350067 192.16441
89.802086 -7.6957674 188.20981
90.402016 -7.5042439 182.9856
89.29747 -6.9188662 180.02473
91.22747 -7.0766802 172.57167
86.998825 -5.2993937 167.32814
88.312775 -5.5480165 164.37622
85.314987 -4.1348238 158.18723
83.489494 -2.923048 149.30557
86.185196 -3.2695608 141.65411
85.415871 -2.9001236 140.17624
81.527138 -1.1153173 132.50278
80.61721 -0.6454134 129.81786
83.421829 -1.2086926 125.03293
78.536484 1.1578846 113.70769
80.840553 0.64842606 110.1458
77.127655 2.9346771 94.437134
74.435883 3.9846096 91.92453
76.188217 4.3327999 78.827271
73.446159 5.4877567 74.933838
72.32431 6.133194 70.854568
72.477829 6.5902348 63.666794
71.792206 7.0250778 60.459427
70.376228 7.8352966 55.416183
69.104736 8.5171051 51.615845
70.173798 8.6475544 44.555542
68.709198 9.4164944 40.397598
66.871567 10.292362 36.395645
67.495705 10.475325 30.690384
66.321526 11.222406 25.474747
64.871597 11.955523 21.636078
64.354797 12.537672 15.707352
63.763885 13.160255 9.4379578
89.548874 -11.720787 205.90761
89.435249 -11.814695 202.90417
88.795799 -10.945818 197.84128
87.925072 -10.038191 193.27785
86.981552 -9.4814348 188.69476
86.560936 -9.0172558 183.62103
85.66655 -7.6331825 178.04181
84.857124 -7.6672945 173.60611
83.819626 -6.6692533 168.58569
83.524986 -5.1851263 163.66071
82.836845 -4.6665077 158.63864
82.55983 -3.7211685 155.12971
80.852547 -3.617382 147.72226
80.860847 -3.1051273 145.33362
80.218658 -7.4531441 140.61057
79.166016 -4.0810375 132.00604
77.602638 -1.6732445 128.67619
77.62365 -0.34853172 125.52177
76.427971 -2.1621361 120.60263
75.891396 -1.0109959 113.05714
74.65551 0.20504951 110.18336
73.089012 0.83560371 105.79842
71.804176 1.1916447 101.68158
72.213272 1.6640682 94.14444
71.870148 2.5685654 91.329636
71.004013 3.9892635 85.471359
69.324379 3.3468208 81.026413
69.09597 4.3061028 74.526764
68.775177 5.1956882 71.549774
68.88102 7.1523781 65.856659
66.949265 6.0444298 59.50267
66.214874 6.5161076 55.833252
66.003143 7.7353497 52.077332
65.15831 9.379837 45.720734
63.846367 8.7722244 40.134079
63.348557 8.8309479 36.934814
63.497845 10.770489 31.615189
63.085011 12.19994 26.540909
60.904549 10.992373 20.921661
60.411976 11.255991 17.424805
60.010353 13.009531 10.939728
85.753563 -14.382095 206.18013
85.487946 -14.229767 204.05807
85.037773 -13.492559 197.71355
84.317398 -13.845625 193.33043
83.833992 -12.690214 188.28799
82.466278 -12.650535 183.7343
82.148628 -11.60323 178.60947
80.966171 -11.348613 173.56122
80.947983 -9.4079456 168.39017
79.205666 -9.3567076 163.9231
78.701645 -9.0533934 159.32513
77.744431 -8.8761683 154.48145
78.575165 -8.7891445 149.36896
77.117744 -9.2390862 143.10318
75.861794 -8.1576529 138.85764
74.162926 -6.6713476 134.79123
74.020897 -4.5951357 130.55287
74.456581 -5.6492062 124.64349
71.623611 -5.5837612 119.11705
71.176323 -3.7523003 115.02182
70.982132 -2.1698551 111.2448
69.520508 -4.0111313 103.64888
68.596649 -2.9988785 100.13541
68.156616 -0.74682999 94.627472
67.943932 0.21445274 91.729599
66.388969 -1.4549732 85.305634
65.675064 -0.27560043 80.903061
65.186104 1.8656235 74.838608
64.730301 2.1807995 70.720947
63.251419 1.3212795 65.640869
62.656769 2.5268421 61.102661
62.235115 4.3407745 55.851227
61.40818 3.9655056 50.926361
60.387356 4.0510368 46.295471
59.657146 5.1430073 41.623901
59.046478 6.0582771 36.040024
58.106659 5.740427 31.570999
57.391457 6.6820869 26.766724
56.641724 7.7220955 22.052948
55.859623 7.8497162 16.710434
54.8964 8.47756 10.994522
84.112434 -17.822224 206.02409
83.008606 -17.8554 203.43663
81.763008 -17.541967 198.07654
81.19014 -16.763577 193.64056
80.672699 -16.364323 188.87155
79.432098 -16.673382 183.77861
78.637703 -15.368422 178.78094
78.305016 -15.155649 174.00536
77.002441 -14.758016 168.48898
76.919334 -13.94541 164.73303
75.646378 -13.851557 158.17274
73.692383 -14.892543 155.00403
74.698029 -11.218234 148.49304
73.498077 -12.610969 143.27502
73.032257 -10.791705 140.18866
72.434494 -8.2327471 135.96747
71.049484 -11.123687 128.05435
70.844765 -9.1869049 124.65791
70.760254 -6.8195095 120.64478
68.737968 -9.006525 113.57567
68.606445 -7.9192657 109.83849
68.516136 -5.6228924 105.48618
66.219559 -6.9793663 98.981445
66.13887 -6.4980183 94.806778
66.05307 -4.1845303 89.810623
65.293701 -3.2541695 86.072372
63.644558 -5.1023808 80.009735
63.609955 -2.9595928 75.244736
63.25502 -1.1382771 70.903442
61.30378 -2.9765778 65.061203
61.100067 -1.6929874 60.569077
60.827919 0.20126534 55.784103
59.220394 -0.73711205 50.653198
58.643398 -0.33233261 45.909729
58.342419 1.4571457 41.107178
57.247959 1.6596527 36.075256
56.307503 1.352478 31.457932
55.901867 2.7934723 26.460571
54.935116 3.2700768 21.232269
54.039318 3.2821693 16.796188
53.177059 4.3028603 10.429337
79.185753 -19.344101 189.28444
78.049202 -18.602654 182.92601
76.163811 -17.205452 169.11937
74.433693 -15.886121 160.88429
71.685181 -13.631862 142.55881
70.389038 -12.610294 134.39035
70.093369 -12.559419 129.34702
68.971153 -11.460947 125.57678
67.557976 -10.637167 113.41145
66.533485 -9.6704979 109.86499
60.173615 -4.9939957 66.574493
55.696548 -1.4858608 36.778732
53.319004 0.39903259 21.408554
91.717239 0.06085968 192.7122
90.439484 0.85677052 184.85359
88.978096 1.9758658 178.08134
88.357323 3.10783 172.87825
87.92791 3.3290663 169.91429
87.125778 4.1740932 164.59189
86.369728 4.8080964 159.71826
85.037476 5.0270801 154.60165
84.599686 5.7301307 149.65845
83.762619 6.1688848 144.84769
82.902809 6.761848 139.62865
82.820389 7.2511492 136.86923
80.711777 8.2504292 126.10703
80.943512 9.6591368 122.16312
76.562042 11.445281 99.059265
76.518219 12.327593 96.254501
76.512924 13.399244 92.727509
72.33699 14.966839 70.894745
72.198738 16.119646 66.854538
72.031731 17.042231 63.288208
68.199188 17.818274 45.211105
67.712158 18.434902 42.31395
67.818497 19.759178 37.650482
64.590927 20.461113 20.015549
63.674652 21.158539 17.466675
62.814075 21.964445 11.74762
89.351936 -4.740211 206.77342
88.742523 -4.0920663 201.85036
87.809929 -4.3020215 198.23375
87.449547 -2.7927446 193.71463
86.717651 -2.3728304 189.26868
85.860405 -2.3246975 184.57446
85.052032 -1.6078777 179.28297
84.576759 -0.11776066 174.43977
83.770432 0.932827 168.57643
83.152916 0.82714176 165.60265
82.255165 1.8448343 159.24007
80.374077 2.1520939 148.8692
78.967232 2.6019974 145.32047
79.42482 2.7773914 141.95813
76.871727 4.038805 133.33472
73.84214 5.8396015 108.54446
73.620422 6.8576565 106.38467
73.54789 8.2163506 102.76007
69.226624 9.8493824 84.265442
69.50753 9.8962135 81.883392
69.4272 11.249544 76.65657
69.147659 12.552167 72.626724
66.194046 11.692913 59.480774
65.646698 12.711538 57.293777
65.461761 14.073892 51.528015
65.065475 15.367846 47.194382
61.915791 15.209188 35.090195
61.730209 15.678893 32.700317
61.572292 16.710354 27.202332
61.080292 18.09461 22.25354
60.741074 19.057049 18.779373
58.768311 18.442368 10.48967
86.076065 -8.2406387 206.86467
86.164551 -7.7171788 204.30533
85.640106 -7.1752586 198.94571
84.422432 -6.5511494 193.85568
83.173042 -5.6528368 188.63995
82.518951 -5.1061964 184.36624
81.83815 -4.6105871 180.01962
81.164619 -3.8062353 174.52974
80.426765 -3.8306103 169.41499
79.621979 -3.1875381 164.69478
79.202171 -2.718791 159.72235
78.590981 -2.153429 154.64352
77.818161 -0.96219635 150.18768
77.32518 -0.60870743 144.86029
76.586998 -0.45471096 140.10521
75.384109 1.6565666 135.61676
75.491058 0.070397377 130.17439
74.619576 -0.49101639 123.92151
73.490723 1.1429539 119.99738
72.829636 3.0968876 115.81584
71.523643 4.7556782 110.83705
70.455566 3.4128819 106.08316
70.556953 2.9653378 100.43765
69.844376 4.3833923 96.317474
68.785126 6.4227047 91.124359
67.856544 7.484189 86.026978
67.097618 5.5199289 81.121902
66.675682 6.7211008 75.55246
65.858948 8.2069244 71.186111
65.04348 9.5611267 66.470596
64.166801 9.5336847 61.420959
63.178345 9.2916117 56.717453
62.841095 9.9992533 51.572968
62.141411 11.32739 46.919174
61.175724 10.841686 41.640259
60.353539 12.178495 37.119537
59.474316 12.408409 32.079147
59.124878 13.22811 27.177444
58.379616 13.323617 22.342911
57.45039 13.875687 17.500565
56.537647 15.039955 11.269684
83.895836 -9.9301128 207.002
82.632477 -10.333353 204.71637
82.42112 -8.7044907 198.23865
81.842407 -7.8746967 194.91429
80.950676 -7.4501648 189.20158
79.841042 -7.4938831 184.43707
79.083336 -7.1059303 179.58774
78.749222 -5.8037262 174.51343
78.019417 -5.1922188 169.86658
77.276604 -4.5917597 164.70825
76.486382 -4.3369904 159.84644
75.580765 -3.7397671 155.07791
74.348511 -3.4342289 150.00778
73.837631 -2.3449764 145.59097
72.915146 -2.7477522 140.27249
71.624573 -1.8261223 136.25253
73.046463 -3.1552591 129.05968
73.37011 -1.3085365 125.2934
70.055649 -0.58217812 119.71768
68.882141 0.69715881 115.70216
68.000252 1.8053722 111.34982
69.681572 1.5758152 105.97227
68.585678 2.3493176 100.7644
66.641449 3.0423489 95.841278
65.353775 4.0451565 91.113647
64.988106 5.1003189 86.55571
65.168785 5.1814766 81.613266
63.880341 5.1587677 76.104385
62.835033 5.5155125 71.452057
62.160271 6.2453003 66.41597
60.614418 7.5949612 62.129166
59.024113 6.7058201 56.857315
59.933498 6.5854683 51.244293
59.807175 7.8179417 46.614044
57.545509 9.4228115 42.353302
55.76675 9.8328552 37.580353
56.002872 8.8211079 31.883636
55.759659 9.9853554 27.275848
54.269241 11.398821 22.559662
52.85358 12.286819 17.740051
52.205875 12.45994 11.692398
78.533569 -13.532598 207.40593
78.591164 -13.296051 205.06712
77.238602 -12.347431 199.29086
76.173248 -12.352542 194.07297
75.001053 -12.261498 189.26062
74.460632 -11.596581 185.34669
73.381744 -10.554526 180.3093
73.041267 -10.005102 175.61005
72.272545 -9.5172863 170.51099
72.385574 -8.7190685 165.3181
71.786301 -8.1476374 160.27893
71.331078 -7.1092501 154.76289
69.68721 -6.9507065 150.11708
69.303711 -5.9885054 145.54254
69.107773 -5.4607725 139.88394
67.844757 -4.5403547 135.73785
66.544502 -3.5508671 132.04073
68.490463 -4.347044 124.14859
67.164993 -3.3808098 120.28342
65.325043 -2.5954742 115.82103
63.733292 -1.6618958 111.24127
62.60804 -0.77958107 106.96429
64.043251 -0.91935349 101.19652
62.947186 -0.37669945 96.140091
60.919685 0.092370987 91.150024
59.305283 0.69456673 86.578705
58.587715 1.6087646 82.339874
58.723289 2.4787464 77.508896
58.312775 2.2651539 71.247879
56.491791 2.6179199 66.438354
55.990318 3.6012173 61.961517
55.257027 4.8044567 57.423218
55.200336 5.7566452 52.36821
54.478134 5.4515247 47.301407
54.450481 6.2746181 41.972168
53.973812 7.1026325 37.369064
53.079079 8.1771107 32.658264
51.270184 7.9445839 27.482468
50.55682 8.3641167 22.83934
51.020065 9.3351746 18.042053
49.212093 10.080433 11.440536
76.352226 -15.540098 207.50539
75.620392 -15.033838 205.09819
75.228363 -14.339494 200.13608
74.021042 -13.667131 194.89925
73.560638 -13.066254 189.55936
72.906387 -12.389518 185.00873
71.910187 -11.740306 180.19116
71.117874 -11.175956 175.30603
70.263145 -10.771467 170.02231
69.708847 -10.201405 165.26997
68.850929 -9.6462879 160.40192
67.968864 -8.9979267 155.74506
67.167603 -8.4754715 150.71175
66.006454 -7.9094706 145.71996
65.364281 -7.5039835 141.50375
65.326355 -7.261714 135.78566
63.65612 -5.9144526 130.88127
62.706635 -5.4126644 126.76624
64.104782 -5.9629841 119.03056
63.042419 -5.2092876 115.81056
61.600727 -4.1760635 111.37178
60.020702 -3.2344074 106.67412
58.803909 -2.3754673 102.51605
59.565247 -2.5137577 95.826767
59.341484 -1.8724174 91.368332
58.134201 -0.76921463 86.659851
56.650734 -0.035774231 81.963196
55.370579 0.73089981 77.450882
56.049797 0.29463768 71.436539
55.453606 1.2799282 66.742661
54.384422 2.2077312 62.177612
53.048264 2.9173336 57.5336
52.42054 3.4183407 52.451981
52.175152 3.6005096 47.701874
51.383327 4.3521881 42.225143
50.4389 5.0250912 37.857834
49.414795 5.2462311 31.6353
48.689373 6.2582588 28.01387
47.698433 7.3700371 23.836105
47.574383 7.2315273 18.251434
45.562016 8.3340721 11.370193
91.567787 6.0013494 189.3698
83.134445 12.172171 132.31357
74.463196 19.021732 78.330978
71.055756 21.723106 56.356964
69.561348 22.713224 46.517136
68.972763 23.110218 41.633606
66.556641 25.052746 26.543259
64.117477 26.936348 11.043564
93.990097 2.5350242 206.92168
91.903893 2.518754 204.50269
91.909866 2.1305017 199.2372
90.164665 3.400486 193.80643
90.137604 3.819026 189.10173
88.033981 4.6516466 184.67648
87.313797 5.3155766 180.12311
86.117653 5.8879828 174.96176
85.968971 6.3057532 169.86922
85.826988 6.487998 164.96581
85.587357 6.8149414 159.73061
84.315376 7.2829762 155.0766
83.31543 8.2694588 150.48647
82.633972 8.7458668 145.42088
81.79969 9.4247856 140.54529
81.644463 9.5769157 135.31606
80.386803 11.251243 130.64963
78.457726 11.199835 126.42868
79.618553 10.223477 121.2722
79.29586 12.947805 115.56616
77.045433 14.07152 112.02419
75.903183 15.758871 107.37213
76.120804 11.958395 98.730774
75.507034 12.754284 95.570206
75.694534 14.607213 90.688583
75.027794 16.27845 85.662552
73.736397 17.467321 81.673401
70.464142 18.44865 77.555618
71.565437 16.045959 70.428452
71.100388 16.456554 66.354248
71.186081 18.205341 61.23909
69.965256 19.470921 56.692093
68.675491 20.611008 52.084564
66.207527 21.465174 47.636948
66.540047 19.785673 41.841705
65.840668 19.690945 37.688416
66.69957 21.815634 31.314148
65.588242 22.613934 28.0867
64.059769 23.854025 22.589493
62.003601 23.418438 17.227036
61.726807 23.428873 11.693771
87.119179 -0.49459505 207.62898
87.089958 -0.49447536 205.21024
86.265549 0.026581764 199.49577
85.141685 1.0112343 194.26465
84.628227 1.1861243 189.58069
84.611969 1.4315886 184.68471
84.102356 2.2007079 180.35449
83.167374 2.8790703 175.40106
82.271446 3.782999 170.23206
81.534874 4.1126847 165.10867
80.643005 4.6646419 160.37515
80.015221 5.1956291 155.24036
79.290314 5.6497765 150.36411
78.529213 6.2911978 145.59033
77.873627 6.8250203 140.85715
77.191513 7.8774891 135.73534
76.51474 8.6577625 131.12079
75.55294 8.7356014 126.38153
75.837593 9.5625839 120.3988
74.083168 10.527142 116.52899
73.450699 11.863647 112.89297
72.462875 8.1024246 105.34691
71.612228 9.6202993 100.89487
71.233009 11.296535 96.240875
70.727806 12.753896 91.249084
69.820404 14.254873 86.700729
68.711517 15.060776 82.022461
68.12674 14.02448 77.154922
67.407486 13.661189 71.658691
67.023659 15.237143 66.562973
66.43103 16.386276 61.9814
65.328949 17.176796 57.070923
64.347702 18.059311 52.426773
63.412621 18.395378 47.765854
63.039982 17.69236 42.490234
62.959145 18.969763 36.962402
61.971329 19.651697 32.540802
60.829441 20.712971 27.746658
59.731846 21.490974 23.123535
58.761372 22.489815 18.326523
58.459381 22.61409 11.481369
85.343224 -4.3793578 207.44075
84.653809 -3.5028963 204.80859
83.705414 -2.6798401 199.66971
82.314796 -2.507369 194.18546
82.5858 -2.4174261 189.91269
82.735916 -1.9632673 184.60065
81.378082 -1.3739672 180.34361
80.495567 -0.61825085 175.47931
80.152168 0.029508591 169.90219
79.397301 0.63496876 165.15665
78.847504 1.1161356 160.3909
78.007706 1.9354935 155.41963
77.237656 2.5291281 150.58511
76.531509 3.1653261 145.72916
75.260986 3.921504 140.92862
74.436691 4.9223251 136.40123
74.175026 3.9610395 131.3674
72.791168 5.6420364 125.41463
72.819138 6.6071558 121.73808
71.924881 6.6392136 115.05322
69.585754 6.6619139 110.07869
70.006058 6.2478628 106.02893
69.432846 7.7592955 101.584
68.910042 9.5346909 96.511353
68.07103 11.023016 91.836578
66.580963 9.7620125 86.068176
65.715775 9.2945232 81.34024
65.413719 10.649847 77.192093
65.003571 11.856178 71.737335
64.536591 13.325029 67.142654
63.572968 14.423538 62.799179
62.683071 12.128204 56.670746
61.776775 13.20903 52.345917
59.960808 14.591568 47.777374
60.196068 15.716685 42.470947
60.0256 16.960814 37.915344
58.477623 15.357543 32.344711
57.654213 15.631086 27.621521
57.00042 16.876472 23.132339
54.625439 18.438095 17.896378
54.778275 18.828503 12.073502
82.177567 -7.4938045 207.56102
81.807518 -6.9978957 205.84294
80.576157 -6.4587512 199.15173
79.943817 -5.9923091 194.8214
77.90065 -5.2074661 190.04156
77.599266 -5.0008039 185.63072
76.736176 -5.2717876 180.14612
75.898407 -4.6144953 175.39743
76.032845 -3.4931641 170.4816
75.403305 -3.0810719 165.45978
74.552971 -2.7633266 160.82782
73.827789 -2.0791349 155.63272
72.443703 -1.1030064 150.49664
72.485733 -0.55035496 145.57782
70.495224 -0.37263775 141.28375
70.496445 1.5152216 135.17191
69.980301 1.1294651 131.62695
68.526443 1.8992081 126.67117
67.005447 3.0379848 120.4838
67.786514 3.7801504 116.88419
67.42836 3.0303907 109.54268
66.742027 3.615056 106.35245
65.161461 4.3470917 102.00624
63.43718 4.8482141 96.958954
62.548035 6.2505846 91.991821
62.641502 7.0802927 86.378662
63.013599 7.2158833 82.019806
61.548576 7.3255072 77.051651
60.117451 7.8339367 72.488098
58.569397 8.4212809 67.13884
57.984184 9.5312767 62.208908
58.14418 10.425849 57.66098
57.00761 10.971114 52.609406
56.063316 11.009437 47.76712
54.91708 11.063879 42.754013
54.182602 11.981901 37.693329
53.892723 12.719337 33.201202
52.937557 13.478734 28.059814
52.284225 14.217664 23.319092
51.428192 14.838675 18.638458
50.447029 15.17308 11.797806
77.41497 -11.925045 207.77242
76.108482 -12.123226 204.85611
75.5728 -11.230916 199.76439
74.811775 -10.970897 194.69421
74.184418 -10.156874 190.40689
73.377869 -9.5996017 185.78731
72.62468 -8.9567022 180.39532
71.927338 -8.1176271 175.38852
71.617859 -7.2950411 171.12607
70.266953 -7.6265965 165.21881
69.420158 -6.4745865 160.80634
68.825256 -6.2499304 156.6759
68.254242 -4.4641685 150.45209
67.435226 -4.1834517 145.97485
65.730453 -3.0144758 141.09106
64.835945 -1.9450665 136.30109
64.019333 -1.3234243 131.52817
63.298172 -0.69386101 126.8916
63.418449 -0.33889389 122.35466
61.815895 0.58285141 116.98347
59.722786 1.5741882 111.79517
62.04113 0.090751648 105.2482
61.679695 0.93752861 101.87195
60.671341 2.0987148 96.927567
59.329453 3.1044197 92.279099
57.566093 3.9866791 87.639633
56.247559 4.5759869 82.441299
56.159412 4.3746567 77.790497
56.255665 5.1914692 73.043015
57.060978 6.101759 67.575134
56.02454 7.0551109 63.712173
53.384277 6.7226505 56.464523
54.401291 6.9352245 51.96904
53.437328 7.472599 47.571976
53.206295 8.8467827 42.7939
52.648354 9.879818 38.189911
52.333572 10.961386 34.679352
50.977989 10.152523 26.86647
49.128979 9.9839115 22.693909
48.585629 10.949213 18.518906
47.312405 11.600933 11.872467
74.491028 -14.111868 207.96605
73.647842 -13.943449 205.03667
73.081383 -13.225838 200.82323
71.731606 -12.596507 194.81917
71.002014 -12.048552 190.13446
70.458939 -11.610641 185.67317
69.767891 -10.942135 180.39874
68.577591 -10.342629 175.64639
67.696938 -9.6898651 170.89676
67.166855 -9.1924391 165.65091
66.088661 -8.603817 160.7619
64.757866 -8.0761557 156.0605
63.560398 -7.2904186 151.08383
62.638908 -6.5530252 146.37444
62.098564 -6.0503759 141.48732
61.096863 -5.3734846 136.89253
59.550728 -4.4034901 132.30862
59.029854 -3.9582062 127.43227
58.857861 -3.7062359 122.77991
57.666634 -2.743206 116.79927
56.139175 -2.0236359 112.27086
57.924103 -2.0845013 106.67789
57.769363 -2.0017681 100.91911
56.591148 -1.2786522 97.167496
54.962296 -0.38736343 92.594635
53.532852 0.54086113 87.999313
51.896439 1.4146557 83.33136
50.865562 2.336132 77.741394
52.12875 2.1038704 73.22821
51.979111 2.5131683 67.597946
51.11573 3.1546116 63.762314
48.350163 4.4374275 52.626785
48.17429 4.9301434 47.146317
47.88435 5.5101128 43.129654
47.260799 6.1287575 38.389511
46.761929 6.6958694 34.784851
43.937462 7.8987789 23.741714
43.283913 8.3280869 19.111633
41.254883 9.6786137 12.347687
60.674942 -6.3942795 152.44254
59.71991 -5.6757326 147.21774
58.774998 -4.9686279 141.69888
58.049622 -4.3195181 136.28445
57.462585 -3.9331303 132.09093
56.708183 -3.3873863 127.43295
49.505234 2.2093983 81.326538
48.340748 2.9926071 75.486969
46.278214 -45.122269 251.39429
91.974861 8.6362171 207.96538
91.180405 9.0849609 204.78574
90.297775 9.469964 200.43147
89.729073 9.712738 194.2205
89.070335 10.285776 190.6185
88.31218 11.471834 185.54544
87.542641 12.000834 180.52333
86.615715 12.638742 175.62169
85.922012 13.059116 170.45654
85.145912 13.691648 165.65947
84.608574 14.1797 161.47574
83.695549 15.066791 155.86615
83.439423 15.611293 150.86037
82.536835 16.047462 146.39029
81.760674 16.842306 141.18237
80.989487 17.234253 136.31046
80.274223 17.822323 131.57657
79.095306 18.312477 125.86403
78.366188 18.936543 121.47305
77.689575 19.673992 117.06035
76.777214 20.065487 111.76396
75.720757 21.258596 106.65118
75.032104 22.163122 103.10008
75.256516 20.434677 96.006882
74.018242 21.986284 91.553101
72.865913 23.387022 86.960297
71.993805 24.658075 82.70993
71.749504 25.797504 75.589691
69.592064 24.159178 60.815186
69.080688 25.263933 57.34288
68.060364 26.528587 53.009918
67.174866 27.904696 48.166687
65.900482 29.059696 43.336197
65.185493 30.096788 39.45163
64.222961 28.057327 26.077133
63.693371 29.009544 22.845642
63.005688 30.073277 18.355087
61.528629 32.426418 12.034607
89.798637 6.2763786 208.0219
89.09671 5.9582129 204.72632
87.972694 7.5228181 199.78699
87.976776 7.8919201 195.37544
88.141457 8.0054932 190.14568
86.925842 7.5530157 185.12949
86.007706 8.165184 180.76959
84.943535 9.4733248 175.69284
84.03714 10.179146 170.68271
83.253105 10.69524 165.74072
82.723816 11.113615 160.84465
82.02446 11.953959 156.05276
81.349121 12.447866 151.23006
80.516068 12.66173 146.13284
79.785355 13.401324 141.02432
79.010124 13.910465 136.18077
78.414764 14.543964 131.38785
77.4646 15.123932 126.56143
76.772049 15.623626 121.62288
76.157852 17.033112 116.98955
75.575714 18.422771 112.48451
74.411057 16.859308 107.10522
74.245461 17.890284 101.32755
73.398674 19.448008 96.908432
72.640366 20.87257 92.809204
72.051559 22.286177 88.540649
70.674896 23.952705 83.179504
69.362091 18.775333 75.749054
69.14624 19.965652 72.126984
68.636482 21.517294 67.324341
68.058594 22.978609 62.688461
67.210823 24.40638 57.887711
66.215393 25.676983 53.134964
65.608383 26.995255 48.580826
64.096191 23.898146 42.489853
63.803589 24.079443 37.978058
63.274754 25.361761 33.21106
62.523468 26.630699 28.46402
61.444752 27.812763 23.697205
60.705261 29.00849 19.006821
59.381664 28.853285 11.984314
86.332062 1.44063 207.98308
85.882172 3.1902304 205.19304
85.116165 3.9186015 199.82669
83.965096 3.8559294 195.57138
83.972504 4.0548472 190.52118
83.921989 4.9227114 185.43594
82.885117 5.639955 180.23666
81.84967 6.328681 175.63564
81.47052 6.4964809 170.81525
80.839188 7.5067625 165.32127
80.297096 8.0681496 161.41524
79.357391 8.5445499 155.94931
78.48877 9.1097775 151.15323
77.652344 9.7290392 146.18549
76.741592 10.526062 141.32846
76.449089 10.778528 136.24506
74.919373 11.237501 131.99467
74.090317 12.246987 125.91765
72.124786 13.092751 122.09984
70.66922 14.359165 117.19147
70.842224 13.926744 111.7491
70.784317 15.016478 108.58987
71.827728 15.703063 103.92358
66.991264 14.878815 97.699112
66.785805 17.377035 92.88356
66.649857 18.424864 88.240356
67.03878 15.796103 80.222076
67.535034 17.345816 76.554703
67.40023 18.568886 73.15564
66.060219 19.973991 67.92189
61.275379 19.314413 62.364716
60.706604 20.532701 58.351059
60.370632 22.291 53.572556
60.272255 23.482553 48.604385
62.53186 21.514639 43.151443
61.888813 22.829731 38.537033
60.834007 24.06354 33.757141
56.288437 23.40316 27.748016
55.1395 24.030096 23.804077
54.646744 25.386072 19.13829
55.951084 25.87409 12.372696
82.291595 -1.3994322 208.27238
83.277016 -0.43809795 204.73993
82.52066 0.49686718 200.20892
81.887711 0.89195299 194.944
81.131241 0.95034027 191.89873
78.919975 4.0942774 180.91994
78.149658 4.884284 175.01982
77.594833 3.257669 171.85432
75.981796 4.0559025 165.57686
75.887222 5.492486 161.85692
74.525528 5.1385431 156.25171
74.022736 6.5633593 151.15021
73.698624 6.8442793 146.39359
72.474121 7.1044459 141.92749
71.16011 6.8447294 136.37143
70.647079 8.0465097 131.21652
69.753769 8.4333525 126.61215
69.251518 8.8826094 122.87155
68.566406 10.305088 118.05295
67.24968 8.9303875 110.95981
66.895813 10.773233 106.90422
66.941269 12.668087 102.5015
66.557953 14.227571 99.472076
63.562828 13.094061 82.987732
61.769051 13.116223 76.817627
61.497635 14.686825 72.887009
61.236038 16.746281 67.907196
60.789536 18.205357 63.608368
60.212166 19.224888 59.682724
57.05455 16.393436 46.411316
56.459816 17.111076 43.129883
56.104832 18.796949 38.443573
55.750488 20.530365 33.541214
55.353489 22.084461 28.904007
54.754307 23.166061 24.771271
51.987873 21.865679 12.059372
77.925209 -5.0877309 206.47279
75.613075 -4.377924 194.33186
75.040909 -3.9800758 190.78281
74.55674 -3.1281929 186.03452
73.788651 -2.2294712 181.9814
72.831123 -9.1990337 205.75496
65.699989 -3.79706 160.63319
64.02182 -2.3507576 149.85745
63.742119 -2.0362539 146.67752
62.842712 -1.2490206 140.83112
62.090874 -0.77145672 136.87231
61.364578 -0.22753239 132.35716
60.540421 0.40350723 127.21951
59.846649 0.98444939 122.67482
57.412613 2.6706181 107.15659
52.252911 6.8068619 72.965515
51.143585 7.5843258 68.9758
47.199512 10.696806 39.898972
71.323853 -8.6739035 206.56203
69.585228 -7.6444116 201.01118
67.527885 -6.6993494 198.72701
67.366653 -6.154808 190.66447
67.458992 -6.0003071 187.61128
66.981003 -5.1643677 177.59474
63.917625 -6.0651493 171.84938
63.225418 -4.9398308 160.88173
61.191795 -5.3083944 156.2626
60.451851 -4.9777441 151.1181
59.853455 -4.6156235 146.50851
59.794357 -2.6329365 141.95856
59.629074 -0.93509674 137.09717
59.056229 -0.22868729 132.71281
58.335457 0.57824612 127.76729
57.725975 1.2324572 122.69177
57.138828 2.1845398 118.22374
55.458191 3.1102962 113.32234
53.603966 4.099061 108.09033
51.77161 5.1513414 101.70755
53.813129 4.6204052 97.929169
49.715843 5.3189335 71.984375
50.165329 7.4541569 68.263321
49.123253 8.6021719 63.382492
47.732525 9.3064861 59.578598
45.561455 10.496325 53.038559
44.325089 11.202459 49.069321
46.143665 10.818533 42.116104
45.923119 11.17528 38.626297
41.397758 14.522207 12.725266
67.060944 -11.121746 196.23241
66.384575 -10.699618 193.33092
63.968872 -8.9106112 178.63463
62.702957 -7.8144054 168.77196
61.408257 -7.0709267 163.45744
60.007301 -5.8369246 156.76233
59.633755 -5.575408 152.16309
58.67432 -4.8576498 147.22556
57.95295 -4.2900782 142.43259
57.159706 -3.6849623 137.79596
56.599575 -3.1685762 132.82628
56.08028 -2.7245884 127.88797
55.021824 -1.8902874 123.39061
53.528194 -1.0050545 117.76738
46.56456 4.7492027 66.801819
45.644371 5.3292885 63.957214
43.523262 6.5185833 57.296082
40.476959 9.1088066 25.469223
91.272484 11.732227 208.44514
89.50441 12.85823 205.26874
88.306801 13.350999 200.32341
88.07737 13.065445 197.12444
87.236656 13.875836 190.85886
87.814468 14.49232 185.95297
86.924652 14.854627 180.8992
86.040474 15.017961 176.1246
85.188232 15.714172 171.39801
84.610474 16.383057 166.93709
83.636688 16.751413 161.98427
83.057716 17.609928 156.36679
82.199043 17.924488 151.15144
81.598351 18.829624 147.00513
80.968971 19.617792 141.43951
80.005363 20.090405 136.62013
78.834663 20.569229 131.67155
78.675186 21.210346 126.80995
77.545357 21.585541 123.09998
76.227684 22.425257 117.49483
74.990158 23.826902 111.66418
75.012825 23.631512 107.68831
74.12014 23.850143 101.94731
73.415314 24.934454 98.851578
71.749245 26.65242 92.450485
69.314026 27.737766 88.543427
69.240921 27.208492 82.964325
70.942947 26.566956 78.538528
70.087112 27.880014 72.870544
69.710991 28.887287 69.822495
67.371819 29.416925 63.456055
64.937035 31.001245 59.031158
65.682541 29.046177 48.643097
65.56337 33.117447 41.7603
64.692055 30.627701 37.437912
64.337234 31.62364 33.993179
63.224091 32.866005 29.029922
62.573723 34.213558 24.226486
62.077843 35.402397 19.859009
58.311016 36.091583 12.774979
86.655647 7.6775079 229.70915
86.47467 8.1275101 227.22398
85.896538 9.0099325 221.64673
87.204117 9.8909607 208.85829
87.081894 9.3736019 205.48776
86.826347 10.397068 199.86734
86.1978 10.414305 196.95921
85.903427 13.044967 190.87607
84.376076 13.415608 186.1962
83.752396 14.175137 181.55891
83.279823 14.952265 176.67117
82.653503 15.218712 171.88623
81.290352 14.614347 167.13452
81.011238 14.603024 160.59616
79.513596 14.857668 156.63788
78.195816 16.023926 151.7018
78.058678 16.471848 147.68182
76.889046 18.078434 142.52754
75.451584 18.236843 137.29269
75.057541 19.719994 133.79478
74.34539 19.382521 127.15623
74.423187 20.602669 122.32201
73.477074 20.771427 117.69128
71.588936 21.187714 112.50157
71.637566 22.164022 107.98732
70.141281 22.274059 102.97054
69.527603 23.119709 98.249939
69.049866 24.43486 93.386169
68.553436 25.914497 88.257706
66.708664 23.9049 82.553894
65.765846 23.843273 78.007294
65.490051 25.733948 73.216324
65.187263 27.453419 68.77005
65.018921 29.049046 64.237015
64.50106 30.0418 60.580826
65.567848 28.342373 55.455627
60.436077 27.171354 41.949127
59.938713 27.925907 38.751404
58.910458 29.069813 34.120224
58.504986 30.649986 29.291656
58.13139 32.241436 24.518066
57.725235 33.797546 19.643631
57.324982 34.268627 13.853729
85.631836 2.3538241 249.1291
85.639641 3.0688097 246.11191
85.661484 3.963908 242.3728
86.173172 6.0131187 235.26845
85.456032 6.5846786 230.57532
85.631149 7.4276252 227.54141
81.653091 5.356451 223.80774
81.178596 6.7031107 216.58224
84.333534 6.5086799 209.8194
84.707413 5.7127538 207.72807
84.298042 7.0814795 200.69452
83.86972 7.5447879 196.31891
83.473961 7.9145236 192.89711
82.011139 9.0461102 188.16478
80.130241 11.386864 174.47032
78.981796 10.333973 169.42769
77.996796 12.969085 159.70534
77.049583 13.14798 155.79788
76.024506 12.935661 149.8175
75.655403 13.85854 146.24869
74.790115 14.192587 141.32788
74.545837 15.330149 138.10504
73.236328 15.535092 131.1998
72.967606 15.985022 129.25726
71.914284 17.281321 122.44269
71.103706 16.995682 117.56662
70.249481 17.313946 113.19424
69.501579 18.418501 107.01944
69.101364 19.101486 103.36501
68.594467 20.239302 99.874237
66.319061 20.175476 87.100021
66.038025 21.476511 83.651535
60.020889 24.824062 46.853897
59.626476 25.746536 43.762863
59.126316 26.953804 39.715775
58.604362 27.917839 36.107132
54.729446 29.49695 12.441086
85.285042 1.6474425 251.04063
85.470642 2.3387852 248.68475
81.50824 3.6753302 230.50291
79.92392 3.3626571 226.83684
80.293587 4.9073019 221.43123
80.101555 5.4522686 218.5072
77.520187 5.6365442 209.58267
79.3965 -3.0444529 252.43144
77.225761 1.5554838 226.01627
75.741951 1.1085792 223.23824
73.577972 0.92031574 217.21494
73.633461 2.4110718 211.04776
73.185555 -1.2607203 225.25621
72.929504 -1.0575147 223.58423
71.831131 -0.73720932 218.75774
67.426857 -4.7502837 221.94141
67.748817 -3.5347462 217.78543
89.752708 18.762552 209.52287
87.663544 20.464787 195.7845
84.823906 22.383991 177.0934
